# .PCD v0.7 - Point Cloud Data file format
VERSION 0.7
FIELDS x y z rgb
SIZE 4 4 4 4
TYPE F F F F
COUNT 1 1 1 1
WIDTH 987
HEIGHT 1
VIEWPOINT 0 0 0 1 0 0 0
POINTS 987
DATA ascii
-0.17495748 -1.5260817 0.42461535 2.3418052e-38
-0.032269768 -1.4441341 0.43027398 2.3418052e-38
-0.17486307 -1.4519961 0.48108116 2.3418052e-38
-0.014566869 -1.5429896 0.34005156 2.3418052e-38
0.049819157 -1.3842988 0.39497 2.3418052e-38
0.0037744702 -1.5548329 0.46585676 2.3418052e-38
-0.021470156 -1.4608904 0.42070448 2.3418052e-38
0.060590543 -1.5266693 0.46084359 2.3418052e-38
0.081058919 -1.6717912 0.47646144 2.3418052e-38
0.13316987 -1.4914978 0.47603029 2.3418052e-38
0.21745349 -1.4211665 0.49305287 2.3418052e-38
0.16661134 -1.5127579 0.43360516 2.3418052e-38
0.14423923 -1.5373378 0.50247854 2.3418052e-38
0.2611317 -1.4861832 0.33694869 2.3418052e-38
0.30264077 -1.5537262 0.42199332 2.3418052e-38
0.34476101 -1.6513093 0.42939934 2.3418052e-38
0.42868948 -1.4746332 0.39623633 2.3418052e-38
0.39903903 -1.4570895 0.37281153 2.3418052e-38
0.38605171 -1.3744569 0.44392145 2.3418052e-38
0.5062111 -1.5234576 0.40855333 2.3418052e-38
0.38360837 -1.5407178 0.37077004 2.3418052e-38
-0.53378654 -1.5438708 0.48730284 2.3418052e-38
-0.46635428 -1.4575717 0.44663206 2.3418052e-38
-0.43475387 -1.520102 0.56869054 2.3418052e-38
-0.36999917 -1.4918025 0.36778724 2.3418052e-38
-0.30407971 -1.5863618 0.48151276 2.3418052e-38
-0.32793942 -1.4466852 0.41033527 2.3418052e-38
-0.19236109 -1.5511363 0.53961378 2.3418052e-38
-0.26971993 -1.5099652 0.36185941 2.3418052e-38
-0.25361189 -1.433305 0.43881246 2.3418052e-38
-0.278326 -1.4468434 0.53387302 2.3418052e-38
-0.14963078 -1.449733 0.47918496 2.3418052e-38
-0.083886839 -1.4679197 0.41328397 2.3418052e-38
-0.17562506 -1.6090763 0.49270508 2.3418052e-38
-0.1659978 -1.4471124 0.39188832 2.3418052e-38
-0.046410739 -1.5147401 0.43306053 2.3418052e-38
-0.14882046 -1.4385101 0.520661 2.3418052e-38
-0.02645951 -1.4101883 0.55643332 2.3418052e-38
0.0081905294 -1.4955437 0.54542267 2.3418052e-38
-0.011213988 -1.4963944 0.587632 2.3418052e-38
0.043082755 -1.530638 0.53482997 2.3418052e-38
0.1427175 -1.5952138 0.52628887 2.3418052e-38
0.15500218 -1.4847833 0.48864207 2.3418052e-38
0.17446938 -1.460477 0.48025844 2.3418052e-38
0.24776722 -1.4780306 0.46995243 2.3418052e-38
0.17493212 -1.4862626 0.40207112 2.3418052e-38
0.37286162 -1.5068723 0.41358191 2.3418052e-38
0.26757205 -1.4835653 0.41968319 2.3418052e-38
0.29198003 -1.4664387 0.48460272 2.3418052e-38
0.45849985 -1.4836494 0.53484756 2.3418052e-38
0.41845089 -1.55597 0.42137748 2.3418052e-38
0.43540227 -1.4795762 0.48368874 2.3418052e-38
0.39963704 -1.5233723 0.52864045 2.3418052e-38
-0.42183614 -1.4904512 0.56386793 2.3418052e-38
-0.46599025 -1.4413784 0.51969886 2.3418052e-38
-0.46940973 -1.4036709 0.53207791 2.3418052e-38
-0.5062899 -1.2764158 0.50554293 2.3418052e-38
-0.46187618 -1.2944621 0.48828024 2.3418052e-38
-0.58759683 -1.3539934 0.43232408 2.3418052e-38
-0.5085845 -1.2753146 0.5316053 2.3418052e-38
-0.60959315 -1.2858467 0.52644849 2.3418052e-38
-0.52452123 -1.3499143 0.46149993 2.3418052e-38
-0.48673412 -1.3115517 0.58669269 2.3418052e-38
-0.52274704 -1.2145584 0.59082878 2.3418052e-38
-0.41836944 -1.1168171 0.47760925 2.3418052e-38
-0.51186937 -1.1997273 0.40986675 2.3418052e-38
-0.53912288 -1.0440782 0.59675771 2.3418052e-38
-0.38070175 -0.99857664 0.46093172 2.3418052e-38
-0.56160229 -0.9693954 0.50142497 2.3418052e-38
-0.5100224 -1.0373681 0.55088806 2.3418052e-38
-0.46068418 -0.94094896 0.49969065 2.3418052e-38
-0.43438891 -1.0434197 0.44672894 2.3418052e-38
-0.5253191 -0.91752112 0.56511843 2.3418052e-38
-0.46645311 -0.89825463 0.45731896 2.3418052e-38
-0.47943574 -0.95281368 0.46047503 2.3418052e-38
-0.48737919 -0.74199164 0.49517539 2.3418052e-38
-0.43107098 -0.76955235 0.44611731 2.3418052e-38
-0.59907252 -0.80961919 0.51845533 2.3418052e-38
-0.50035346 -0.66305864 0.39456025 2.3418052e-38
-0.49595284 -0.61059833 0.51457757 2.3418052e-38
-0.50439829 -0.60102755 0.39592689 2.3418052e-38
-0.56929737 -0.55141592 0.49549994 2.3418052e-38
-0.45587915 -0.52727318 0.43326533 2.3418052e-38
-0.60733855 -0.56585193 0.52408886 2.3418052e-38
-0.4985193 -0.48567915 0.50813735 2.3418052e-38
-0.42357159 -1.4187266 0.46857375 2.3418052e-38
-0.57281035 -1.432705 0.58423769 2.3418052e-38
-0.46364084 -1.4160975 0.38029277 2.3418052e-38
-0.51294398 -1.3474678 0.41465896 2.3418052e-38
-0.45744494 -1.3569683 0.53846633 2.3418052e-38
-0.3212238 -1.4423845 0.48879549 2.3418052e-38
-0.45673525 -1.2026317 0.51022464 2.3418052e-38
-0.30099648 -1.2422631 0.45402548 2.3418052e-38
-0.40864375 -1.2590719 0.49135578 2.3418052e-38
-0.39509839 -1.1903088 0.51073188 2.3418052e-38
-0.52548063 -1.23624 0.62588757 2.3418052e-38
-0.36917835 -1.2168586 0.53380519 2.3418052e-38
-0.49395064 -1.0514622 0.52277237 2.3418052e-38
-0.47310451 -1.0713859 0.53566432 2.3418052e-38
-0.46306485 -1.1439221 0.45301974 2.3418052e-38
-0.63277984 -0.90644801 0.5691241 2.3418052e-38
-0.48349965 -0.99370921 0.56576771 2.3418052e-38
-0.41432315 -0.99675697 0.47131324 2.3418052e-38
-0.54585099 -0.96793509 0.53753215 2.3418052e-38
-0.37462491 -0.97577286 0.53143668 2.3418052e-38
-0.50034899 -0.94030523 0.4707619 2.3418052e-38
-0.40658471 -0.8338362 0.4504897 2.3418052e-38
-0.52958649 -0.81339216 0.48019552 2.3418052e-38
-0.47299013 -0.67244363 0.41757503 2.3418052e-38
-0.4806383 -0.83759874 0.46557224 2.3418052e-38
-0.37884325 -0.67781746 0.43305153 2.3418052e-38
-0.47705176 -0.6696282 0.47674224 2.3418052e-38
-0.49967921 -0.51362789 0.49670252 2.3418052e-38
-0.35953316 -0.64942372 0.47628728 2.3418052e-38
-0.49668956 -0.60813624 0.43477324 2.3418052e-38
-0.48008072 -0.55600226 0.52362937 2.3418052e-38
-0.43681148 -0.46809697 0.51866436 2.3418052e-38
-0.28284675 -1.4940654 0.62174857 2.3418052e-38
-0.44315282 -1.4251821 0.65388966 2.3418052e-38
-0.41971487 -1.3996086 0.42616725 2.3418052e-38
-0.4720473 -1.3974195 0.44849196 2.3418052e-38
-0.38267553 -1.2704906 0.36862209 2.3418052e-38
-0.39138937 -1.4167163 0.53755414 2.3418052e-38
-0.47222731 -1.3473496 0.42347875 2.3418052e-38
-0.44264227 -1.2945998 0.59633267 2.3418052e-38
-0.41710401 -1.2744902 0.40580785 2.3418052e-38
-0.38263559 -1.3319981 0.34837258 2.3418052e-38
-0.40685812 -1.311877 0.50700933 2.3418052e-38
-0.36642188 -1.0892575 0.37187636 2.3418052e-38
-0.43025759 -1.1839278 0.51835209 2.3418052e-38
-0.43171629 -1.0599103 0.28745186 2.3418052e-38
-0.39496368 -1.0287001 0.46957403 2.3418052e-38
-0.44907829 -1.1643587 0.57386017 2.3418052e-38
-0.38577658 -1.0339915 0.50223863 2.3418052e-38
-0.39683062 -0.89005196 0.47847101 2.3418052e-38
-0.49386993 -0.86247301 0.45906043 2.3418052e-38
-0.61870289 -0.90803611 0.45159918 2.3418052e-38
-0.48385695 -0.93413848 0.49817964 2.3418052e-38
-0.53522825 -0.82280481 0.48511434 2.3418052e-38
-0.46158379 -0.83208305 0.49457484 2.3418052e-38
-0.37003502 -0.69916111 0.39558744 2.3418052e-38
-0.51231539 -0.76910806 0.5146839 2.3418052e-38
-0.40733534 -0.64587969 0.44886062 2.3418052e-38
-0.39770782 -0.66473782 0.5098322 2.3418052e-38
-0.35454851 -0.68815637 0.49571347 2.3418052e-38
-0.42802116 -0.6724233 0.59745795 2.3418052e-38
-0.35404244 -0.60638958 0.50827605 2.3418052e-38
-0.36903057 -0.48951066 0.55631781 2.3418052e-38
-0.39204311 -0.44839555 0.56699646 2.3418052e-38
-0.33128971 -1.5393392 0.46244526 2.3418052e-38
-0.36490381 -1.5085876 0.52883208 2.3418052e-38
-0.38551065 -1.3813004 0.44932371 2.3418052e-38
-0.44493258 -1.2942227 0.54564732 2.3418052e-38
-0.40442845 -1.4311249 0.46010691 2.3418052e-38
-0.41309211 -1.3533487 0.50332856 2.3418052e-38
-0.34631121 -1.3183217 0.46855989 2.3418052e-38
-0.48223647 -1.2825664 0.56886274 2.3418052e-38
-0.28602168 -1.1932493 0.54773915 2.3418052e-38
-0.4475114 -1.2645504 0.3746326 2.3418052e-38
-0.35930651 -1.2235997 0.51182884 2.3418052e-38
-0.43433347 -1.1261823 0.5309422 2.3418052e-38
-0.46129233 -1.1180062 0.51207042 2.3418052e-38
-0.36603332 -1.015626 0.50299549 2.3418052e-38
-0.41438425 -1.1222912 0.37355971 2.3418052e-38
-0.42961761 -1.1612847 0.55381691 2.3418052e-38
-0.2945739 -0.9949832 0.46258128 2.3418052e-38
-0.38260686 -0.98848206 0.62832439 2.3418052e-38
-0.55263805 -0.95042813 0.51856548 2.3418052e-38
-0.28379315 -0.98890662 0.49261549 2.3418052e-38
-0.32332429 -0.85365564 0.46001932 2.3418052e-38
-0.33647954 -0.88761038 0.45282519 2.3418052e-38
-0.26868179 -0.80251634 0.41360328 2.3418052e-38
-0.35944042 -0.77632791 0.58408737 2.3418052e-38
-0.30694264 -0.73577154 0.62210345 2.3418052e-38
-0.48504186 -0.72063118 0.42706075 2.3418052e-38
-0.33541524 -0.66333854 0.38915724 2.3418052e-38
-0.44454816 -0.65797681 0.50932878 2.3418052e-38
-0.34909746 -0.55211306 0.49738315 2.3418052e-38
-0.37836978 -0.69701183 0.56564558 2.3418052e-38
-0.36829418 -0.64305168 0.49055487 2.3418052e-38
-0.42511243 -0.49579853 0.46968234 2.3418052e-38
-0.39755523 -1.5062433 0.54653555 2.3418052e-38
-0.32542193 -1.4938434 0.53501981 2.3418052e-38
-0.38530079 -1.4265165 0.46686834 2.3418052e-38
-0.47103345 -1.4514093 0.44734743 2.3418052e-38
-0.24132061 -1.3713118 0.63118136 2.3418052e-38
-0.35153446 -1.3465558 0.43325028 2.3418052e-38
-0.37035725 -1.2620943 0.45315436 2.3418052e-38
-0.3475785 -1.3885788 0.5476895 2.3418052e-38
-0.29662246 -1.1637737 0.46074224 2.3418052e-38
-0.33863479 -1.1878271 0.60284179 2.3418052e-38
-0.41360074 -1.2155564 0.45460284 2.3418052e-38
-0.4382357 -1.2022134 0.48878416 2.3418052e-38
-0.32006058 -1.087963 0.48575526 2.3418052e-38
-0.37295225 -1.0022857 0.46702787 2.3418052e-38
-0.42803466 -1.0978326 0.51519555 2.3418052e-38
-0.3482888 -1.0809805 0.55004913 2.3418052e-38
-0.32982472 -0.96330893 0.50733429 2.3418052e-38
-0.37430862 -0.95151824 0.53469169 2.3418052e-38
-0.44455642 -0.92371905 0.48140165 2.3418052e-38
-0.31837183 -0.82863516 0.43525395 2.3418052e-38
-0.41882852 -0.97737741 0.39356127 2.3418052e-38
-0.40109387 -0.81155211 0.51674324 2.3418052e-38
-0.31742319 -0.82309645 0.54784471 2.3418052e-38
-0.48439825 -0.8212921 0.54399627 2.3418052e-38
-0.46493 -0.78908652 0.51893586 2.3418052e-38
-0.3054755 -0.76142108 0.45609477 2.3418052e-38
-0.41847509 -0.60986173 0.54914254 2.3418052e-38
-0.34192988 -0.68534446 0.4801116 2.3418052e-38
-0.35373509 -0.69995672 0.62039495 2.3418052e-38
-0.33177236 -0.49317092 0.48896 2.3418052e-38
-0.51204866 -0.51449919 0.51614422 2.3418052e-38
-0.4060947 -0.49982798 0.59826833 2.3418052e-38
-0.33435971 -1.4451789 0.52146947 2.3418052e-38
-0.3666299 -1.4973092 0.57144803 2.3418052e-38
-0.37526911 -1.5893414 0.52450216 2.3418052e-38
-0.23106489 -1.4012655 0.57929617 2.3418052e-38
-0.32457542 -1.304572 0.52911842 2.3418052e-38
-0.35018924 -1.244117 0.5372138 2.3418052e-38
-0.32513359 -1.2164729 0.58094001 2.3418052e-38
-0.32463035 -1.3235538 0.37554362 2.3418052e-38
-0.45014352 -1.2449145 0.45031649 2.3418052e-38
-0.28695515 -1.2311673 0.40698671 2.3418052e-38
-0.3694739 -1.1527914 0.49746662 2.3418052e-38
-0.30718628 -1.0192981 0.58173954 2.3418052e-38
-0.22452414 -1.1457224 0.48982185 2.3418052e-38
-0.31005132 -1.0840967 0.48691708 2.3418052e-38
-0.3591156 -0.95886111 0.52360553 2.3418052e-38
-0.46375299 -0.9068296 0.46471566 2.3418052e-38
-0.30373836 -1.0498155 0.35770649 2.3418052e-38
-0.41582066 -0.96636301 0.4688592 2.3418052e-38
-0.37211588 -0.89076358 0.52540421 2.3418052e-38
-0.31659418 -0.95704502 0.61318582 2.3418052e-38
-0.24588178 -0.88679773 0.53960592 2.3418052e-38
-0.36784911 -0.78701365 0.5554449 2.3418052e-38
-0.33059239 -0.76969296 0.46177372 2.3418052e-38
-0.37486598 -0.81256592 0.43693095 2.3418052e-38
-0.33873665 -0.64970613 0.65137768 2.3418052e-38
-0.39333609 -0.81434214 0.58077121 2.3418052e-38
-0.20389698 -0.801422 0.5744341 2.3418052e-38
-0.41478816 -0.7404213 0.43801805 2.3418052e-38
-0.39665151 -0.60858232 0.48527884 2.3418052e-38
-0.18598706 -0.58565068 0.51550287 2.3418052e-38
-0.35971925 -0.71028733 0.60430956 2.3418052e-38
-0.3401821 -0.57675183 0.45944944 2.3418052e-38
-0.34059396 -1.3902588 0.568802 2.3418052e-38
-0.35155004 -1.5205671 0.47726622 2.3418052e-38
-0.30665725 -1.4621371 0.43219143 2.3418052e-38
-0.31988218 -1.4270666 0.47567466 2.3418052e-38
-0.35390902 -1.4100906 0.53273487 2.3418052e-38
-0.2589775 -1.4054906 0.57085353 2.3418052e-38
-0.28351176 -1.3664958 0.45323789 2.3418052e-38
-0.15743622 -1.2728466 0.49909854 2.3418052e-38
-0.22621545 -1.2867771 0.49186304 2.3418052e-38
-0.34952018 -1.1785845 0.47033858 2.3418052e-38
-0.35705891 -1.1718558 0.39358842 2.3418052e-38
-0.42022717 -1.1620128 0.56250256 2.3418052e-38
-0.26962179 -1.0859998 0.54389727 2.3418052e-38
-0.23133281 -1.0231221 0.527695 2.3418052e-38
-0.34689441 -1.0796503 0.4972111 2.3418052e-38
-0.11065473 -1.0183505 0.5094564 2.3418052e-38
-0.35875735 -0.92285728 0.48915216 2.3418052e-38
-0.35471147 -0.99725604 0.57662505 2.3418052e-38
-0.25602537 -0.84677494 0.53180408 2.3418052e-38
-0.38900527 -0.82959831 0.57747221 2.3418052e-38
-0.34031752 -0.81829083 0.58282816 2.3418052e-38
-0.23376262 -0.81830525 0.44244131 2.3418052e-38
-0.2501047 -0.80329347 0.57536578 2.3418052e-38
-0.29074106 -0.74387467 0.49151942 2.3418052e-38
-0.27909318 -0.72129971 0.51702535 2.3418052e-38
-0.31329897 -0.67820466 0.53272426 2.3418052e-38
-0.33299574 -0.67510664 0.47871974 2.3418052e-38
-0.35872734 -0.68921226 0.44192559 2.3418052e-38
-0.28680107 -0.76128644 0.51877797 2.3418052e-38
-0.3899138 -0.57753241 0.42955935 2.3418052e-38
-0.39887744 -0.53400528 0.57181782 2.3418052e-38
-0.28653365 -0.47374064 0.61461401 2.3418052e-38
-0.38701636 -1.4124247 0.48668933 2.3418052e-38
-0.30339813 -1.4305879 0.53548491 2.3418052e-38
-0.3980591 -1.372365 0.53513551 2.3418052e-38
-0.26796517 -1.4185352 0.65610695 2.3418052e-38
-0.31889707 -1.301132 0.4763259 2.3418052e-38
-0.18240643 -1.2769914 0.5969401 2.3418052e-38
-0.31628412 -1.2432476 0.42890832 2.3418052e-38
-0.29325598 -1.3096892 0.51430184 2.3418052e-38
-0.1750392 -1.2980491 0.52914709 2.3418052e-38
-0.27281046 -1.0810463 0.48608431 2.3418052e-38
-0.30896664 -1.2209935 0.4881275 2.3418052e-38
-0.27747822 -1.1220301 0.53650439 2.3418052e-38
-0.32577741 -1.2235746 0.42693323 2.3418052e-38
-0.32610771 -1.0116278 0.47854698 2.3418052e-38
-0.1638827 -0.98311543 0.49389118 2.3418052e-38
-0.43669468 -0.93361557 0.53588343 2.3418052e-38
-0.20783064 -1.0668237 0.46375057 2.3418052e-38
-0.38408425 -1.0155038 0.51455635 2.3418052e-38
-0.27361655 -0.87988734 0.44266617 2.3418052e-38
-0.17198333 -0.90517116 0.49550796 2.3418052e-38
-0.29207787 -1.052837 0.47729599 2.3418052e-38
-0.29590487 -0.89020252 0.55272931 2.3418052e-38
-0.33079547 -0.75851643 0.60204494 2.3418052e-38
-0.37311271 -0.7910971 0.46169847 2.3418052e-38
-0.32551572 -0.73391807 0.62705863 2.3418052e-38
-0.19297123 -0.71078545 0.51837575 2.3418052e-38
-0.26158983 -0.6886943 0.57137871 2.3418052e-38
-0.3257843 -0.5568468 0.38748696 2.3418052e-38
-0.33993295 -0.49343884 0.43312591 2.3418052e-38
-0.34967762 -0.49743044 0.42754179 2.3418052e-38
-0.24088731 -0.63560706 0.51141822 2.3418052e-38
-0.24345018 -0.53043723 0.52629274 2.3418052e-38
-0.31104258 -1.5216589 0.41580641 2.3418052e-38
-0.36031747 -1.5402075 0.5070734 2.3418052e-38
-0.18937619 -1.4092391 0.49474075 2.3418052e-38
-0.26614833 -1.3944576 0.46094313 2.3418052e-38
-0.22883511 -1.3077486 0.50100672 2.3418052e-38
-0.33538821 -1.389985 0.41304624 2.3418052e-38
-0.15590055 -1.3586526 0.48441225 2.3418052e-38
-0.33072734 -1.0927855 0.52176845 2.3418052e-38
-0.2203546 -1.2547036 0.56267756 2.3418052e-38
-0.39540619 -1.2098567 0.45645446 2.3418052e-38
-0.21997848 -1.19306 0.51170874 2.3418052e-38
-0.22274652 -1.2105627 0.5649575 2.3418052e-38
-0.29057041 -1.1260724 0.45991814 2.3418052e-38
-0.45438719 -0.94550812 0.53232098 2.3418052e-38
-0.22599819 -1.1767544 0.49817494 2.3418052e-38
-0.29392752 -1.0119268 0.51405394 2.3418052e-38
-0.25499821 -0.96868342 0.49071148 2.3418052e-38
-0.26206028 -1.036387 0.53466356 2.3418052e-38
-0.28099769 -0.85363984 0.59360838 2.3418052e-38
-0.33392435 -0.87964058 0.53949034 2.3418052e-38
-0.21568187 -0.83839846 0.55649918 2.3418052e-38
-0.21461095 -0.85299695 0.42331296 2.3418052e-38
-0.29368949 -0.77483284 0.43264589 2.3418052e-38
-0.29129994 -0.84668171 0.44328421 2.3418052e-38
-0.30693617 -0.70388454 0.50332266 2.3418052e-38
-0.28625447 -0.7414645 0.35875222 2.3418052e-38
-0.28674746 -0.63571411 0.40539891 2.3418052e-38
-0.27065229 -0.74136448 0.51946312 2.3418052e-38
-0.2369383 -0.63744748 0.54339015 2.3418052e-38
-0.22767103 -0.5857017 0.45715001 2.3418052e-38
-0.1747559 -0.57262629 0.4767251 2.3418052e-38
-0.24050876 -0.4954927 0.51975471 2.3418052e-38
-0.13185872 -1.5414681 0.4843595 2.3418052e-38
-0.18387327 -1.3950768 0.46658278 2.3418052e-38
-0.19031367 -1.3496838 0.45855752 2.3418052e-38
-0.17601854 -1.3715099 0.61682928 2.3418052e-38
-0.20838179 -1.4496825 0.52408153 2.3418052e-38
-0.17014322 -1.3936599 0.49531308 2.3418052e-38
-0.23836793 -1.2701532 0.47635686 2.3418052e-38
-0.20095076 -1.2779422 0.4022423 2.3418052e-38
-0.39834931 -1.31213 0.51226401 2.3418052e-38
-0.22556467 -1.2540567 0.51715517 2.3418052e-38
-0.24864894 -1.2650416 0.43787137 2.3418052e-38
-0.27663937 -1.2332087 0.37610278 2.3418052e-38
-0.2722339 -1.144562 0.40415287 2.3418052e-38
-0.22980222 -1.0801706 0.41212851 2.3418052e-38
-0.2137977 -1.0481055 0.50330478 2.3418052e-38
-0.28327271 -0.99846667 0.58171868 2.3418052e-38
-0.20275526 -0.85035288 0.53083199 2.3418052e-38
-0.1235766 -0.95876241 0.34742296 2.3418052e-38
-0.175791 -0.95571947 0.47691593 2.3418052e-38
-0.26668286 -0.86335969 0.46785039 2.3418052e-38
-0.20119131 -0.92822385 0.43913707 2.3418052e-38
-0.32445419 -0.9036302 0.5552454 2.3418052e-38
-0.27171081 -0.76066995 0.54175615 2.3418052e-38
-0.21401227 -0.81918597 0.56374168 2.3418052e-38
-0.27851418 -0.90361202 0.56221098 2.3418052e-38
-0.28015044 -0.70488453 0.42872024 2.3418052e-38
-0.2249909 -0.78593296 0.61248696 2.3418052e-38
-0.1437979 -0.63525337 0.50537062 2.3418052e-38
-0.26288393 -0.67214876 0.5332939 2.3418052e-38
-0.15681379 -0.51624483 0.58074826 2.3418052e-38
-0.08892253 -0.49464202 0.47781852 2.3418052e-38
-0.16987205 -0.59734082 0.48487833 2.3418052e-38
-0.19112885 -1.5592085 0.42406771 2.3418052e-38
-0.11301324 -1.4106185 0.58691794 2.3418052e-38
-0.098622821 -1.4339273 0.54806978 2.3418052e-38
-0.15774457 -1.4954141 0.60071886 2.3418052e-38
-0.18065464 -1.5596241 0.58704507 2.3418052e-38
-0.13032323 -1.4460918 0.48685104 2.3418052e-38
-0.080093801 -1.311471 0.56035936 2.3418052e-38
-0.11599106 -1.2756696 0.4853453 2.3418052e-38
-0.068301357 -1.1577498 0.4685151 2.3418052e-38
-0.32232517 -1.1728776 0.45221424 2.3418052e-38
-0.22528495 -1.225842 0.46347392 2.3418052e-38
-0.17462149 -1.1585915 0.47714806 2.3418052e-38
-0.29330248 -1.1395599 0.44427565 2.3418052e-38
-0.30704549 -1.1423165 0.36058772 2.3418052e-38
-0.20732164 -1.0124614 0.54626185 2.3418052e-38
-0.21351632 -0.98548257 0.49810222 2.3418052e-38
-0.10011432 -1.015741 0.47303468 2.3418052e-38
-0.15241922 -1.0793285 0.47761276 2.3418052e-38
-0.25290391 -0.93381768 0.56773931 2.3418052e-38
-0.096270978 -0.89836985 0.4760471 2.3418052e-38
-0.18270791 -0.92321104 0.54501963 2.3418052e-38
-0.17980567 -0.7574892 0.40266314 2.3418052e-38
-0.16786805 -0.74663895 0.58881134 2.3418052e-38
-0.32701033 -0.7910524 0.51861322 2.3418052e-38
-0.26141977 -0.67902666 0.49464864 2.3418052e-38
-0.20064434 -0.70348585 0.54827124 2.3418052e-38
-0.19765396 -0.60385627 0.47978371 2.3418052e-38
-0.18973638 -0.79062933 0.55342883 2.3418052e-38
-0.1651593 -0.55556011 0.41605547 2.3418052e-38
-0.13951802 -0.62551475 0.47803679 2.3418052e-38
-0.14335555 -0.58330882 0.38898444 2.3418052e-38
-0.19251564 -0.4132514 0.49293363 2.3418052e-38
-0.094240397 -1.4392856 0.53476244 2.3418052e-38
-0.1799635 -1.5047401 0.45774716 2.3418052e-38
-0.095112503 -1.4268907 0.52167904 2.3418052e-38
-0.23960209 -1.4445268 0.50882143 2.3418052e-38
-0.21984166 -1.3404754 0.40469071 2.3418052e-38
-0.14771108 -1.3345478 0.419137 2.3418052e-38
-0.2124044 -1.1796142 0.4447605 2.3418052e-38
-0.17255469 -1.3179116 0.42578995 2.3418052e-38
-0.25745133 -1.2796258 0.50263822 2.3418052e-38
-0.088956721 -1.1657532 0.45828456 2.3418052e-38
-0.18165514 -1.110286 0.52979338 2.3418052e-38
-0.082706571 -1.0883417 0.35522002 2.3418052e-38
-0.18057252 -1.1272136 0.45211375 2.3418052e-38
-0.17839283 -0.98898154 0.52678835 2.3418052e-38
-0.079148248 -0.98174334 0.52919734 2.3418052e-38
-0.1149673 -1.1476358 0.58839327 2.3418052e-38
-0.14484675 -0.96478695 0.6029442 2.3418052e-38
-0.11097081 -0.91415113 0.4797546 2.3418052e-38
-0.017032683 -0.81692451 0.51404393 2.3418052e-38
-0.12400255 -0.99339211 0.50798774 2.3418052e-38
-0.17480725 -0.86721182 0.46846217 2.3418052e-38
-0.14629793 -0.94843519 0.44873634 2.3418052e-38
-0.14722924 -0.82748425 0.55422103 2.3418052e-38
-0.22413042 -0.76305175 0.44531891 2.3418052e-38
-0.15246186 -0.85280597 0.56123799 2.3418052e-38
-0.14082666 -0.83818138 0.45795971 2.3418052e-38
-0.21991117 -0.75525653 0.44034806 2.3418052e-38
-0.2309345 -0.68051505 0.50228995 2.3418052e-38
-0.12662555 -0.69254458 0.41653475 2.3418052e-38
-0.19840804 -0.68871772 0.45021379 2.3418052e-38
-0.30498588 -0.47904205 0.53290099 2.3418052e-38
-0.15291846 -0.60333514 0.44671583 2.3418052e-38
-0.089002088 -1.4503587 0.40465426 2.3418052e-38
-0.21369711 -1.4385432 0.51372832 2.3418052e-38
-0.033431895 -1.4022073 0.50571221 2.3418052e-38
-0.15856276 -1.4160957 0.52825403 2.3418052e-38
-0.12482434 -1.447691 0.43888941 2.3418052e-38
-0.10486925 -1.3497875 0.35790408 2.3418052e-38
-0.076098725 -1.3122258 0.57140529 2.3418052e-38
-0.14057477 -1.2658403 0.52234054 2.3418052e-38
-0.096514948 -1.2610176 0.58715928 2.3418052e-38
-0.24061337 -1.308797 0.50668591 2.3418052e-38
-0.11259663 -1.1173913 0.5623498 2.3418052e-38
-0.1073786 -1.0299938 0.47408846 2.3418052e-38
-0.09143357 -1.1050889 0.51800901 2.3418052e-38
-0.15664048 -1.1486126 0.4542836 2.3418052e-38
-0.15535253 -1.1586546 0.48851329 2.3418052e-38
-0.1702975 -0.9656378 0.60834926 2.3418052e-38
-0.16754597 -0.97291952 0.53231341 2.3418052e-38
-0.097011179 -0.92224568 0.4892028 2.3418052e-38
-0.15481189 -0.92465168 0.53181404 2.3418052e-38
-0.11092176 -0.79632974 0.57869744 2.3418052e-38
-0.078436106 -0.85045713 0.55925739 2.3418052e-38
-0.097538009 -0.92043167 0.48807332 2.3418052e-38
-0.10697443 -0.72201806 0.50799644 2.3418052e-38
-0.075860873 -0.81914568 0.44126105 2.3418052e-38
-0.2747348 -0.77661079 0.55983442 2.3418052e-38
-0.16346505 -0.73932147 0.52184755 2.3418052e-38
-0.11012959 -0.62351078 0.43841574 2.3418052e-38
-0.10935216 -0.5682261 0.45435032 2.3418052e-38
-0.043077849 -0.62074035 0.6250208 2.3418052e-38
-0.1044536 -0.53829843 0.49194616 2.3418052e-38
-0.13505158 -0.58610666 0.61615753 2.3418052e-38
-0.17156148 -0.57100463 0.48632216 2.3418052e-38
-0.056616634 -1.4469507 0.45780391 2.3418052e-38
-0.12829562 -1.4723467 0.44819054 2.3418052e-38
-0.13203596 -1.3345791 0.58054608 2.3418052e-38
-0.09737213 -1.4899328 0.49541545 2.3418052e-38
-0.038700502 -1.3242295 0.45653969 2.3418052e-38
-0.12263769 -1.4326103 0.45757654 2.3418052e-38
-0.073497221 -1.2305458 0.52020127 2.3418052e-38
-0.098456115 -1.2006775 0.48865664 2.3418052e-38
-0.095258005 -1.3648087 0.40807354 2.3418052e-38
-0.1724107 -1.2692382 0.54532874 2.3418052e-38
-0.020077243 -1.1171273 0.54593629 2.3418052e-38
-0.13683634 -1.0335695 0.53591186 2.3418052e-38
-0.17115448 -0.95017278 0.45377395 2.3418052e-38
-0.11821468 -1.1457486 0.50978297 2.3418052e-38
-0.066973917 -1.0604078 0.51189911 2.3418052e-38
-0.083764866 -1.0051725 0.46896034 2.3418052e-38
-0.0085964203 -0.82066 0.42087212 2.3418052e-38
-0.063520484 -0.98343897 0.56533557 2.3418052e-38
-0.14994903 -0.98145884 0.44433588 2.3418052e-38
-0.087485798 -0.92098278 0.46762848 2.3418052e-38
-0.11665398 -0.84779632 0.49027029 2.3418052e-38
-0.15297371 -0.87431347 0.4368546 2.3418052e-38
-0.059936497 -0.76351398 0.5471276 2.3418052e-38
-0.05060719 -0.85689992 0.4568592 2.3418052e-38
-0.11918677 -0.62825292 0.56082261 2.3418052e-38
-0.1260599 -0.72945654 0.5633477 2.3418052e-38
-0.069938205 -0.71789503 0.47374281 2.3418052e-38
-0.19544649 -0.73628408 0.4140656 2.3418052e-38
-0.065006837 -0.5976392 0.51198167 2.3418052e-38
-0.099826358 -0.61406398 0.53134346 2.3418052e-38
-0.084086113 -0.57358205 0.54671448 2.3418052e-38
-0.175412 -0.57638133 0.42715544 2.3418052e-38
-0.04599309 -1.5013561 0.55855674 2.3418052e-38
-0.010609869 -1.4660796 0.39639461 2.3418052e-38
0.022006243 -1.3230369 0.48028046 2.3418052e-38
-0.074275099 -1.5291882 0.5890314 2.3418052e-38
-0.023701694 -1.3500326 0.45326653 2.3418052e-38
-0.043926895 -1.3947904 0.50282484 2.3418052e-38
-0.08277306 -1.1858143 0.58519959 2.3418052e-38
-0.17649579 -1.2015034 0.50591999 2.3418052e-38
-0.092218131 -1.307193 0.67509824 2.3418052e-38
-0.011284903 -1.1613227 0.46445858 2.3418052e-38
-0.055128288 -1.2274127 0.44766062 2.3418052e-38
-0.11775307 -1.161525 0.40551966 2.3418052e-38
-0.074901745 -1.1238555 0.45752871 2.3418052e-38
-0.11958008 -1.1645094 0.59255552 2.3418052e-38
-0.085688606 -0.95930845 0.54759669 2.3418052e-38
-0.087426335 -0.98388916 0.46660274 2.3418052e-38
-0.0831246 -0.95142823 0.54589653 2.3418052e-38
-0.061742436 -1.0342556 0.45458257 2.3418052e-38
-0.078180969 -1.0063218 0.50303453 2.3418052e-38
-0.037301704 -0.86540627 0.5816732 2.3418052e-38
-0.050927974 -0.75288045 0.39152414 2.3418052e-38
0.023425438 -0.74842769 0.45853311 2.3418052e-38
-0.0063107237 -0.86377472 0.58413059 2.3418052e-38
-0.079149641 -0.82306379 0.45748004 2.3418052e-38
-0.068735689 -0.83274406 0.46220735 2.3418052e-38
-0.04928543 -0.73157954 0.53494364 2.3418052e-38
-0.069029786 -0.64934003 0.52436721 2.3418052e-38
-0.058627743 -0.69795191 0.58010459 2.3418052e-38
-0.0056916028 -0.58513284 0.49381495 2.3418052e-38
-0.077750273 -0.57347178 0.5062927 2.3418052e-38
-0.040681075 -0.45167047 0.42479888 2.3418052e-38
-0.082697108 -0.53244185 0.49899656 2.3418052e-38
0.0081787631 -1.5058994 0.49711749 2.3418052e-38
-0.014372984 -1.5021083 0.51157928 2.3418052e-38
-0.15756901 -1.5191548 0.42201617 2.3418052e-38
0.013120554 -1.3770769 0.48069328 2.3418052e-38
-0.036089707 -1.3971086 0.52895248 2.3418052e-38
-0.086018041 -1.2982113 0.50981814 2.3418052e-38
-0.0018205233 -1.2996204 0.49603176 2.3418052e-38
0.0091912039 -1.2856265 0.5669145 2.3418052e-38
-0.011575637 -1.2306993 0.44460866 2.3418052e-38
-0.06179139 -1.1996319 0.49029177 2.3418052e-38
0.038102619 -1.2268354 0.46629858 2.3418052e-38
-0.022913951 -1.1184783 0.53532678 2.3418052e-38
0.0016096607 -1.0458401 0.55456758 2.3418052e-38
0.048867792 -1.0861994 0.4615106 2.3418052e-38
-0.0017051175 -1.1021076 0.50714755 2.3418052e-38
-0.044287689 -0.97880256 0.57376629 2.3418052e-38
-0.031509809 -0.97119492 0.41044068 2.3418052e-38
-0.11931328 -0.9814297 0.56295604 2.3418052e-38
-0.026357723 -0.99170035 0.59414023 2.3418052e-38
-0.066616967 -0.95782954 0.51054919 2.3418052e-38
0.038563795 -0.90841377 0.40364003 2.3418052e-38
-0.064887807 -0.85498774 0.46893167 2.3418052e-38
-0.12478294 -0.8377319 0.54635853 2.3418052e-38
0.04767359 -0.73264521 0.47454154 2.3418052e-38
-0.084783278 -0.74049687 0.52474666 2.3418052e-38
-0.063495152 -0.71978474 0.46902069 2.3418052e-38
-0.16569054 -0.65203083 0.49445987 2.3418052e-38
0.036124758 -0.6912055 0.52335835 2.3418052e-38
0.030428138 -0.65431708 0.47968742 2.3418052e-38
0.095646858 -0.63182068 0.52185309 2.3418052e-38
0.035773322 -0.56515062 0.50455809 2.3418052e-38
-0.15491636 -0.56945789 0.55380684 2.3418052e-38
-0.17139496 -1.5556034 0.4598248 2.3418052e-38
0.057680581 -1.4993974 0.521119 2.3418052e-38
-0.032424551 -1.4786526 0.42237142 2.3418052e-38
-0.1427664 -1.3894634 0.40598255 2.3418052e-38
-0.025247516 -1.2853513 0.35418656 2.3418052e-38
-0.074490659 -1.384941 0.5121603 2.3418052e-38
0.070919879 -1.3505107 0.53432649 2.3418052e-38
-0.041903909 -1.3186896 0.46863502 2.3418052e-38
-0.00043558606 -1.2544564 0.53219414 2.3418052e-38
0.033841353 -1.1376128 0.4349376 2.3418052e-38
0.037420582 -1.1769978 0.49470353 2.3418052e-38
0.091753259 -1.1494218 0.6334089 2.3418052e-38
0.13414592 -1.2101448 0.48947939 2.3418052e-38
0.072299376 -1.1517642 0.50872695 2.3418052e-38
0.018974449 -1.0457054 0.46317819 2.3418052e-38
-0.10105114 -1.0873667 0.53912657 2.3418052e-38
0.34155235 -0.82226294 0.47853905 2.3418052e-38
0.38471296 -0.71463418 0.48479071 2.3418052e-38
0.28814805 -0.76267338 0.610789 2.3418052e-38
0.40470207 -0.81083792 0.4608658 2.3418052e-38
0.27124321 -0.59814405 0.42280203 2.3418052e-38
0.27923536 -0.64101624 0.51748002 2.3418052e-38
0.38433135 -0.53750533 0.37869346 2.3418052e-38
0.45479727 -0.56078124 0.51096922 2.3418052e-38
0.4594655 -0.63586885 0.51566327 2.3418052e-38
0.4703393 -0.45824707 0.63020694 2.3418052e-38
0.50508523 -1.5150727 0.51207989 2.3418052e-38
0.40010372 -1.5077555 0.45462617 2.3418052e-38
0.50495076 -1.4797695 0.52298534 2.3418052e-38
0.33237088 -1.5271041 0.41775575 2.3418052e-38
0.41448244 -1.4339385 0.417568 2.3418052e-38
0.44745001 -1.4623598 0.41599625 2.3418052e-38
0.59858233 -1.288921 0.55109304 2.3418052e-38
0.50690413 -1.1708586 0.44313982 2.3418052e-38
0.48236698 -1.2292131 0.51868081 2.3418052e-38
0.38586932 -1.2473021 0.52620691 2.3418052e-38
0.4390108 -1.175122 0.44406876 2.3418052e-38
0.46913862 -1.122473 0.49023634 2.3418052e-38
0.5631004 -1.1506382 0.51244599 2.3418052e-38
0.41736925 -1.0412697 0.50037247 2.3418052e-38
0.38396379 -1.0334444 0.55449528 2.3418052e-38
0.48967296 -0.97733289 0.50462353 2.3418052e-38
0.44836441 -1.0549955 0.48745766 2.3418052e-38
0.45557156 -1.0570672 0.47976553 2.3418052e-38
0.522645 -1.0083371 0.50488466 2.3418052e-38
0.45875949 -0.89168286 0.49626964 2.3418052e-38
0.39720237 -0.84228945 0.470496 2.3418052e-38
0.33337668 -0.8097381 0.49046949 2.3418052e-38
0.41109139 -0.76753318 0.49124375 2.3418052e-38
0.4792062 -0.8924197 0.67643398 2.3418052e-38
0.36886165 -0.73379529 0.57742751 2.3418052e-38
0.42405394 -0.74532509 0.49924299 2.3418052e-38
0.5353626 -0.74173111 0.4905867 2.3418052e-38
0.26198685 -0.60718143 0.41687918 2.3418052e-38
0.5000304 -0.60122347 0.48903033 2.3418052e-38
0.40655693 -0.67539281 0.39051315 2.3418052e-38
0.49236697 -0.52381587 0.59970033 2.3418052e-38
0.43016881 -0.68431944 0.45730478 2.3418052e-38
0.50086558 -1.5080495 0.43733335 2.3418052e-38
0.34629628 -1.4900683 0.44986254 2.3418052e-38
0.48421711 -1.465362 0.52196741 2.3418052e-38
0.51464808 -1.4464207 0.45634013 2.3418052e-38
0.45582882 -1.3041514 0.48874474 2.3418052e-38
0.52620846 -1.3215997 0.43496946 2.3418052e-38
0.56536442 -1.2985119 0.40375772 2.3418052e-38
0.53546095 -1.3627245 0.47461256 2.3418052e-38
0.31519926 -1.2964962 0.40899041 2.3418052e-38
0.45013717 -1.1698244 0.49582943 2.3418052e-38
0.43637753 -1.3018796 0.42805067 2.3418052e-38
0.49494803 -1.1480953 0.40713769 2.3418052e-38
0.47724783 -1.0929829 0.49876887 2.3418052e-38
0.55110657 -1.1596222 0.48973125 2.3418052e-38
0.37204552 -1.0453273 0.56505036 2.3418052e-38
0.45303753 -1.0612793 0.55169636 2.3418052e-38
0.42002234 -0.98748761 0.57135212 2.3418052e-38
0.46966887 -0.79113585 0.46892798 2.3418052e-38
0.52380967 -0.99056524 0.61218488 2.3418052e-38
0.49765655 -0.8099758 0.40090352 2.3418052e-38
0.43637589 -0.89230669 0.63699758 2.3418052e-38
0.53284526 -0.78844535 0.50631297 2.3418052e-38
0.4342292 -0.8463012 0.46687418 2.3418052e-38
0.43084046 -0.80638015 0.45603293 2.3418052e-38
0.47469079 -0.81373453 0.4713586 2.3418052e-38
0.38369936 -0.71667731 0.42904872 2.3418052e-38
0.53944945 -0.67542309 0.46418005 2.3418052e-38
0.45150429 -0.68007481 0.40468496 2.3418052e-38
0.35435247 -0.63820094 0.41998199 2.3418052e-38
0.53702056 -0.6282481 0.5303123 2.3418052e-38
0.4728061 -0.5213002 0.6262418 2.3418052e-38
0.50701535 -0.54780281 0.45296505 2.3418052e-38
-0.42825454 -1.611542 -0.44773954 2.3418052e-38
-0.56858015 -1.375231 -0.3795335 2.3418052e-38
-0.56354231 -1.4091009 -0.55373096 2.3418052e-38
-0.4664306 -1.3461618 -0.53940707 2.3418052e-38
-0.58205658 -1.4584348 -0.59401387 2.3418052e-38
-0.54875666 -1.421877 -0.58308244 2.3418052e-38
-0.44089898 -1.2858136 -0.48197761 2.3418052e-38
-0.52570713 -1.2364683 -0.5843904 2.3418052e-38
-0.48633102 -1.3047388 -0.50029546 2.3418052e-38
-0.5014264 -1.2078272 -0.43960726 2.3418052e-38
-0.48292968 -1.1790007 -0.42731613 2.3418052e-38
-0.52977085 -1.0895333 -0.54794139 2.3418052e-38
-0.58492756 -1.0629176 -0.4010818 2.3418052e-38
-0.47078744 -1.0652465 -0.49084893 2.3418052e-38
-0.51901299 -0.94638371 -0.448154 2.3418052e-38
-0.53810859 -1.0417902 -0.49216518 2.3418052e-38
-0.42577496 -1.1109022 -0.48837304 2.3418052e-38
-0.50276494 -1.0052087 -0.46840966 2.3418052e-38
-0.58034277 -0.86667371 -0.52813709 2.3418052e-38
-0.52703202 -0.87415731 -0.56333804 2.3418052e-38
-0.62777436 -0.96676993 -0.40045449 2.3418052e-38
-0.5848881 -0.85988152 -0.46468455 2.3418052e-38
-0.57453114 -0.75046921 -0.53137541 2.3418052e-38
-0.52182031 -0.90849161 -0.53508794 2.3418052e-38
-0.47405785 -0.75471318 -0.40054268 2.3418052e-38
-0.42058349 -0.6814785 -0.47803015 2.3418052e-38
-0.51529539 -0.66644353 -0.45233512 2.3418052e-38
-0.56279874 -0.69605577 -0.57299745 2.3418052e-38
-0.3987779 -0.6635704 -0.50486624 2.3418052e-38
-0.43197447 -0.59483546 -0.44505256 2.3418052e-38
-0.54147947 -0.54187739 -0.45128414 2.3418052e-38
-0.53217578 -0.43833697 -0.63112515 2.3418052e-38
-0.49165818 -1.5815465 -0.50799865 2.3418052e-38
-0.38445765 -1.4987669 -0.40817738 2.3418052e-38
-0.36435044 -1.5768795 -0.50826353 2.3418052e-38
-0.33203948 -1.5013863 -0.51857537 2.3418052e-38
-0.51795048 -1.3963945 -0.44424057 2.3418052e-38
-0.46670499 -1.4336777 -0.49947262 2.3418052e-38
-0.43521762 -1.222119 -0.50757748 2.3418052e-38
-0.61298871 -1.3096434 -0.46558079 2.3418052e-38
-0.49988288 -1.2590547 -0.45026904 2.3418052e-38
-0.4215208 -1.2245864 -0.5160563 2.3418052e-38
-0.53720462 -1.1460423 -0.49494326 2.3418052e-38
-0.533732 -1.1776993 -0.47478217 2.3418052e-38
-0.46271506 -1.0460074 -0.58989292 2.3418052e-38
-0.53705657 -0.99932003 -0.57386738 2.3418052e-38
-0.4418672 -0.97976881 -0.52365237 2.3418052e-38
-0.389072 -1.0860037 -0.45287874 2.3418052e-38
-0.46910319 -0.95433313 -0.45910355 2.3418052e-38
-0.4513905 -0.92265159 -0.55933636 2.3418052e-38
-0.3796441 -0.92862338 -0.41750965 2.3418052e-38
-0.51923221 -0.89904559 -0.48908278 2.3418052e-38
-0.49671045 -0.8625204 -0.51475567 2.3418052e-38
-0.51428461 -0.79177856 -0.41495696 2.3418052e-38
-0.37247318 -0.83650959 -0.55356681 2.3418052e-38
-0.47593883 -0.77016157 -0.51675433 2.3418052e-38
-0.31781837 -0.82112288 -0.54991364 2.3418052e-38
-0.50374109 -0.78720009 -0.61766601 2.3418052e-38
-0.37445623 -0.68422341 -0.50768459 2.3418052e-38
-0.55417585 -0.6555661 -0.53881168 2.3418052e-38
-0.45122099 -0.66816491 -0.51050693 2.3418052e-38
-0.49058989 -0.58873993 -0.52515787 2.3418052e-38
-0.48339388 -0.6012646 -0.55329692 2.3418052e-38
-0.48939523 -0.48681629 -0.47042987 2.3418052e-38
-0.48056641 -1.4970043 -0.41426599 2.3418052e-38
-0.51253027 -1.5122108 -0.40489855 2.3418052e-38
-0.34536535 -1.4766747 -0.44559678 2.3418052e-38
-0.37797278 -1.2886305 -0.39876443 2.3418052e-38
-0.41710818 -1.3585882 -0.42435554 2.3418052e-38
-0.3811228 -1.3314209 -0.60088396 2.3418052e-38
-0.51706648 -1.2485539 -0.52968705 2.3418052e-38
-0.50031877 -1.3931017 -0.51514703 2.3418052e-38
-0.45010903 -1.2177873 -0.60156524 2.3418052e-38
-0.35438317 -1.2055665 -0.50629717 2.3418052e-38
-0.43874183 -1.0927631 -0.40361106 2.3418052e-38
-0.52473307 -1.2169348 -0.43616763 2.3418052e-38
-0.24988517 -1.1857491 -0.40622061 2.3418052e-38
-0.38075396 -1.1861539 -0.51214755 2.3418052e-38
-0.39732483 -1.1044776 -0.4572705 2.3418052e-38
-0.44466487 -0.9092139 -0.57415569 2.3418052e-38
-0.46497643 -1.0188842 -0.47663391 2.3418052e-38
-0.39907929 -0.90137428 -0.58743382 2.3418052e-38
-0.43614656 -0.98450977 -0.62226695 2.3418052e-38
-0.40736049 -0.86598599 -0.56267923 2.3418052e-38
-0.42002887 -0.81329048 -0.49843019 2.3418052e-38
-0.33192354 -0.85811061 -0.62750822 2.3418052e-38
-0.40160146 -0.69037628 -0.50694478 2.3418052e-38
-0.51922345 -0.85690993 -0.49533999 2.3418052e-38
-0.40326032 -0.78895974 -0.46456516 2.3418052e-38
-0.39166126 -0.69191158 -0.50872695 2.3418052e-38
-0.42175463 -0.649297 -0.48315299 2.3418052e-38
-0.39941141 -0.77522683 -0.48131487 2.3418052e-38
-0.41489503 -0.63597518 -0.48088995 2.3418052e-38
-0.35690489 -0.4895364 -0.51131427 2.3418052e-38
-0.30997157 -0.54357064 -0.41230187 2.3418052e-38
-0.38376877 -0.42030156 -0.3957209 2.3418052e-38
-0.40859395 -1.4439999 -0.44360319 2.3418052e-38
-0.37236246 -1.4588964 -0.37451237 2.3418052e-38
-0.3910448 -1.3770505 -0.59843165 2.3418052e-38
-0.36456943 -1.385367 -0.38154852 2.3418052e-38
-0.3600682 -1.3969424 -0.52884483 2.3418052e-38
-0.36181024 -1.3074679 -0.54131615 2.3418052e-38
-0.42576227 -1.2672968 -0.47566164 2.3418052e-38
-0.367549 -1.1669844 -0.56566608 2.3418052e-38
-0.48779437 -1.2840209 -0.54120499 2.3418052e-38
-0.45733234 -1.1857647 -0.4810679 2.3418052e-38
-0.40578547 -1.2356565 -0.51045555 2.3418052e-38
-0.5273478 -1.170706 -0.5771569 2.3418052e-38
-0.36585146 -1.1927615 -0.43206251 2.3418052e-38
-0.45112813 -1.1023529 -0.57023996 2.3418052e-38
-0.48579729 -1.0784975 -0.5922634 2.3418052e-38
-0.36577305 -0.83977085 -0.39635223 2.3418052e-38
-0.41827986 -1.0729247 -0.49275914 2.3418052e-38
-0.45155197 -0.97602111 -0.44610146 2.3418052e-38
-0.39252689 -0.84864765 -0.52387434 2.3418052e-38
-0.43724343 -0.89040041 -0.57226688 2.3418052e-38
-0.35003951 -0.89198005 -0.37338644 2.3418052e-38
-0.34476462 -0.78905225 -0.62151521 2.3418052e-38
-0.28476232 -0.8689447 -0.50653052 2.3418052e-38
-0.47687337 -0.86745018 -0.513708 2.3418052e-38
-0.45960978 -0.82673144 -0.47850278 2.3418052e-38
-0.38763016 -0.72057909 -0.51931584 2.3418052e-38
-0.33216512 -0.72465551 -0.56387299 2.3418052e-38
-0.46706966 -0.67252141 -0.53341937 2.3418052e-38
-0.39825204 -0.54819053 -0.42160344 2.3418052e-38
-0.37414885 -0.50219113 -0.46840695 2.3418052e-38
-0.48651081 -0.49315459 -0.5409708 2.3418052e-38
-0.36361355 -0.5816586 -0.3643142 2.3418052e-38
-0.29152659 -1.4933714 -0.38953844 2.3418052e-38
-0.23989603 -1.4436092 -0.44849834 2.3418052e-38
-0.3246538 -1.3953937 -0.5247283 2.3418052e-38
-0.31967038 -1.2699119 -0.48315492 2.3418052e-38
-0.34308979 -1.4229052 -0.47979644 2.3418052e-38
-0.37817961 -1.2972983 -0.41225162 2.3418052e-38
-0.46512604 -1.3107619 -0.50896448 2.3418052e-38
-0.36736995 -1.2329805 -0.48977205 2.3418052e-38
-0.3797324 -1.1854956 -0.48723376 2.3418052e-38
-0.22391135 -1.1459858 -0.5471853 2.3418052e-38
-0.45602649 -1.1774179 -0.40628937 2.3418052e-38
-0.39813641 -1.0232205 -0.45781586 2.3418052e-38
-0.40482113 -1.1747991 -0.57710826 2.3418052e-38
-0.49266872 -1.1030765 -0.4296512 2.3418052e-38
-0.34232339 -1.21904 -0.38854986 2.3418052e-38
-0.50843751 -1.084778 -0.41487244 2.3418052e-38
-0.18090889 -1.0431767 -0.49560747 2.3418052e-38
-0.3308633 -0.92314351 -0.51620889 2.3418052e-38
-0.3104009 -1.0339807 -0.55659282 2.3418052e-38
-0.41434807 -0.80062693 -0.55639768 2.3418052e-38
-0.4608652 -0.88828069 -0.45867836 2.3418052e-38
-0.34745109 -0.90531516 -0.46572798 2.3418052e-38
-0.2512686 -0.83681917 -0.45139879 2.3418052e-38
-0.46626949 -0.65585679 -0.46575025 2.3418052e-38
-0.34105051 -0.71756744 -0.59042293 2.3418052e-38
-0.42198595 -0.75526834 -0.55427921 2.3418052e-38
-0.35197318 -0.66741645 -0.54918361 2.3418052e-38
-0.48084274 -0.65825945 -0.57942152 2.3418052e-38
-0.33100325 -0.6598587 -0.49679631 2.3418052e-38
-0.40330273 -0.55296338 -0.47468737 2.3418052e-38
-0.36362553 -0.56765568 -0.59971929 2.3418052e-38
-0.39200926 -0.55669785 -0.49296117 2.3418052e-38
-0.33367133 -1.3863957 -0.60005397 2.3418052e-38
-0.34762061 -1.5415872 -0.49379152 2.3418052e-38
-0.35330692 -1.3827734 -0.52331746 2.3418052e-38
-0.28624231 -1.445312 -0.60076308 2.3418052e-38
-0.32277644 -1.3632724 -0.3820174 2.3418052e-38
-0.31420389 -1.4109089 -0.5593403 2.3418052e-38
-0.1732045 -1.31033 -0.49666354 2.3418052e-38
-0.27211761 -1.3109992 -0.45710185 2.3418052e-38
-0.34594822 -1.2671931 -0.47246799 2.3418052e-38
-0.35269091 -1.1324878 -0.38800097 2.3418052e-38
-0.3990711 -1.2261095 -0.43333268 2.3418052e-38
-0.35985744 -1.1763861 -0.58366746 2.3418052e-38
-0.4009085 -1.1869874 -0.44808534 2.3418052e-38
-0.31100345 -1.1389685 -0.5289402 2.3418052e-38
-0.38574857 -1.1158022 -0.44804913 2.3418052e-38
-0.23896706 -1.0173292 -0.49733073 2.3418052e-38
-0.2596758 -0.90829074 -0.53846365 2.3418052e-38
-0.34743044 -0.92253709 -0.54325044 2.3418052e-38
-0.3629306 -1.0488647 -0.47217989 2.3418052e-38
-0.28489614 -0.75780082 -0.41662365 2.3418052e-38
-0.22717708 -0.71426284 -0.39751333 2.3418052e-38
-0.19510651 -0.88916159 -0.5184446 2.3418052e-38
-0.35866803 -0.89020652 -0.53056544 2.3418052e-38
-0.34106773 -0.67711651 -0.38815832 2.3418052e-38
-0.36996251 -0.73511976 -0.48757479 2.3418052e-38
-0.38822892 -0.60359198 -0.55371875 2.3418052e-38
-0.39442945 -0.69330448 -0.51633894 2.3418052e-38
-0.35901812 -0.62203485 -0.47332519 2.3418052e-38
-0.37190729 -0.64343011 -0.6026662 2.3418052e-38
-0.38968211 -0.67499781 -0.51923293 2.3418052e-38
-0.44110632 -0.52175605 -0.3844721 2.3418052e-38
-0.23499587 -0.51209903 -0.42712992 2.3418052e-38
-0.23079371 -1.4884832 -0.38382614 2.3418052e-38
-0.26111004 -1.4834208 -0.50836921 2.3418052e-38
-0.27797049 -1.4612619 -0.48903003 2.3418052e-38
-0.33184925 -1.3727791 -0.54848802 2.3418052e-38
-0.32489061 -1.3814653 -0.5256626 2.3418052e-38
-0.23907188 -1.365289 -0.55257928 2.3418052e-38
-0.35530418 -1.3849113 -0.5201804 2.3418052e-38
-0.21061492 -1.3061289 -0.45441511 2.3418052e-38
-0.43739244 -1.2563107 -0.60333091 2.3418052e-38
-0.32925165 -1.3312546 -0.56369615 2.3418052e-38
-0.32540008 -1.1931983 -0.55819422 2.3418052e-38
-0.3630085 -1.0703216 -0.57051432 2.3418052e-38
-0.40572697 -1.1437774 -0.59802938 2.3418052e-38
-0.30330005 -1.0843894 -0.53322941 2.3418052e-38
-0.45298332 -1.1666962 -0.36624712 2.3418052e-38
-0.2721712 -1.1031226 -0.49598661 2.3418052e-38
-0.48108166 -0.94680548 -0.56898779 2.3418052e-38
-0.37139881 -0.9464165 -0.54779035 2.3418052e-38
-0.30072471 -0.91738009 -0.53982925 2.3418052e-38
-0.2775149 -1.0126351 -0.48044795 2.3418052e-38
-0.3756035 -0.88731807 -0.51720607 2.3418052e-38
-0.30759752 -0.82793331 -0.46118379 2.3418052e-38
-0.2991378 -0.89748955 -0.47135222 2.3418052e-38
-0.32506645 -0.74272811 -0.50639749 2.3418052e-38
-0.33763304 -0.73357308 -0.52905148 2.3418052e-38
-0.30635452 -0.69056088 -0.53924727 2.3418052e-38
-0.27973318 -0.68675768 -0.58354145 2.3418052e-38
-0.41452488 -0.70195675 -0.57065171 2.3418052e-38
-0.36928415 -0.60454816 -0.41792881 2.3418052e-38
-0.2931909 -0.52238387 -0.39587972 2.3418052e-38
-0.38453126 -0.50535202 -0.53853381 2.3418052e-38
-0.26646328 -0.4720096 -0.51721537 2.3418052e-38
-0.12634094 -1.5331553 -0.5931468 2.3418052e-38
-0.1874927 -1.3998312 -0.45732862 2.3418052e-38
-0.20960608 -1.4492605 -0.39992744 2.3418052e-38
-0.26161599 -1.4240459 -0.49786729 2.3418052e-38
-0.33695731 -1.2909272 -0.50816971 2.3418052e-38
-0.31047925 -1.3787384 -0.51753789 2.3418052e-38
-0.31147319 -1.3576596 -0.47328949 2.3418052e-38
-0.39273924 -1.2305524 -0.42038578 2.3418052e-38
-0.26395512 -1.2151428 -0.44398662 2.3418052e-38
-0.37986991 -1.3131428 -0.53478849 2.3418052e-38
-0.31261253 -1.2316222 -0.47019309 2.3418052e-38
-0.1937651 -1.1697749 -0.41840929 2.3418052e-38
-0.2119413 -1.1945686 -0.43673003 2.3418052e-38
-0.38981211 -0.99153495 -0.5515933 2.3418052e-38
-0.26780117 -1.0878814 -0.37292942 2.3418052e-38
-0.20268399 -1.0558844 -0.44459981 2.3418052e-38
-0.3048431 -1.1190668 -0.5374229 2.3418052e-38
-0.13079132 -0.91159415 -0.48383567 2.3418052e-38
-0.37131017 -0.90473598 -0.32396227 2.3418052e-38
-0.23683769 -0.87331235 -0.59873879 2.3418052e-38
-0.313032 -0.78960788 -0.41811404 2.3418052e-38
-0.33003962 -0.87060302 -0.49868941 2.3418052e-38
-0.30572605 -0.88690537 -0.53209203 2.3418052e-38
-0.23215874 -0.66940331 -0.49452016 2.3418052e-38
-0.32813382 -0.76604283 -0.51619929 2.3418052e-38
-0.20829439 -0.62865555 -0.50310057 2.3418052e-38
-0.22277941 -0.6006943 -0.52449805 2.3418052e-38
-0.30678794 -0.70535064 -0.49673003 2.3418052e-38
-0.10495545 -0.78040779 -0.57115865 2.3418052e-38
-0.26422924 -0.56348556 -0.48887715 2.3418052e-38
-0.37931654 -0.56875098 -0.44592458 2.3418052e-38
-0.21894021 -0.46840262 -0.47484657 2.3418052e-38
-0.23468971 -1.7416162 -0.4306078 2.3418052e-38
-0.26464257 -1.4761311 -0.53962225 2.3418052e-38
-0.22006506 -1.4520258 -0.45345375 2.3418052e-38
-0.24126279 -1.5341952 -0.40305555 2.3418052e-38
-0.22990863 -1.2987204 -0.54816812 2.3418052e-38
-0.24397138 -1.382961 -0.58913815 2.3418052e-38
-0.16434968 -1.2293417 -0.45152318 2.3418052e-38
-0.14904672 -1.2561098 -0.54585791 2.3418052e-38
-0.27431393 -1.3070314 -0.55854833 2.3418052e-38
-0.28690463 -1.2950579 -0.56117737 2.3418052e-38
-0.25584632 -1.2366059 -0.5713293 2.3418052e-38
-0.25479716 -1.168893 -0.47432366 2.3418052e-38
-0.24383132 -1.0646505 -0.45190829 2.3418052e-38
-0.27897352 -1.080892 -0.65134442 2.3418052e-38
-0.21284486 -1.0003887 -0.52769357 2.3418052e-38
-0.24238308 -1.0778319 -0.5033713 2.3418052e-38
-0.34974924 -0.92205644 -0.48416013 2.3418052e-38
-0.23000206 -0.89419359 -0.51953757 2.3418052e-38
-0.25695419 -0.96790516 -0.48606879 2.3418052e-38
-0.24818853 -0.89152443 -0.54683363 2.3418052e-38
-0.27549639 -0.82425565 -0.5516966 2.3418052e-38
-0.25883669 -0.87605774 -0.51500356 2.3418052e-38
-0.35130459 -0.76945007 -0.44441921 2.3418052e-38
-0.27007359 -0.72592115 -0.45876405 2.3418052e-38
-0.2362874 -0.73502469 -0.46649957 2.3418052e-38
-0.26226503 -0.6315937 -0.42900982 2.3418052e-38
-0.24895731 -0.78376675 -0.40404564 2.3418052e-38
-0.33082598 -0.59249735 -0.3917219 2.3418052e-38
-0.32866248 -0.65139759 -0.44360235 2.3418052e-38
-0.13460787 -0.6116991 -0.47140443 2.3418052e-38
-0.30011553 -0.55549622 -0.51254439 2.3418052e-38
-0.18963091 -0.42043638 -0.4735063 2.3418052e-38
-0.25331193 -1.4164772 -0.51639909 2.3418052e-38
-0.29650575 -1.3711827 -0.53392297 2.3418052e-38
-0.26857054 -1.3305984 -0.4551639 2.3418052e-38
-0.18993962 -1.4412491 -0.39469695 2.3418052e-38
-0.19877444 -1.1890982 -0.42823035 2.3418052e-38
-0.17730512 -1.2907941 -0.48129532 2.3418052e-38
-0.22819629 -1.3248833 -0.4367215 2.3418052e-38
-0.21865787 -1.2369294 -0.49388954 2.3418052e-38
-0.25641114 -1.2790601 -0.58477032 2.3418052e-38
-0.21011294 -1.2101525 -0.32046831 2.3418052e-38
-0.20512934 -1.0628532 -0.62457162 2.3418052e-38
-0.21556027 -1.20818 -0.49917307 2.3418052e-38
-0.24566507 -1.0273823 -0.52637684 2.3418052e-38
-0.20367602 -1.0756396 -0.49362585 2.3418052e-38
-0.2335725 -0.9039011 -0.42187697 2.3418052e-38
-0.17137142 -1.0389242 -0.4309814 2.3418052e-38
-0.25342804 -1.0223525 -0.5657537 2.3418052e-38
-0.21607624 -0.92175102 -0.5096826 2.3418052e-38
-0.30958316 -0.97472131 -0.46907067 2.3418052e-38
-0.27854115 -0.81523854 -0.59938192 2.3418052e-38
-0.30214649 -0.83560753 -0.50363934 2.3418052e-38
-0.26270205 -0.86889428 -0.53998309 2.3418052e-38
-0.15239885 -0.89545679 -0.36713481 2.3418052e-38
-0.27583876 -0.84702826 -0.60455728 2.3418052e-38
-0.19038224 -0.70115745 -0.46849376 2.3418052e-38
-0.16189079 -0.79869282 -0.45920724 2.3418052e-38
-0.09017767 -0.58816457 -0.48965809 2.3418052e-38
-0.21150725 -0.67681766 -0.46714985 2.3418052e-38
-0.29263341 -0.59361345 -0.52442783 2.3418052e-38
-0.21228097 -0.58184534 -0.54079288 2.3418052e-38
-0.189097 -0.54953718 -0.49087971 2.3418052e-38
-0.16121727 -0.5735544 -0.50115705 2.3418052e-38
-0.14995721 -1.4945452 -0.52544278 2.3418052e-38
-0.17433794 -1.5277196 -0.61735368 2.3418052e-38
-0.11448426 -1.4204822 -0.53669667 2.3418052e-38
-0.2513279 -1.5387098 -0.41937876 2.3418052e-38
-0.15607333 -1.3789916 -0.55197811 2.3418052e-38
-0.26280087 -1.315027 -0.46774095 2.3418052e-38
-0.21340545 -1.1882567 -0.45334867 2.3418052e-38
-0.28392011 -1.273203 -0.46298638 2.3418052e-38
-0.15800402 -1.283525 -0.60708016 2.3418052e-38
-0.31527314 -1.1918054 -0.6296438 2.3418052e-38
-0.19206509 -1.1486862 -0.5309146 2.3418052e-38
-0.20632373 -1.2286915 -0.54834151 2.3418052e-38
