# .PCD v0.7 - Point Cloud Data file format
VERSION 0.7
FIELDS x y z rgb
SIZE 4 4 4 4
TYPE F F F F
COUNT 1 1 1 1
WIDTH 1397
HEIGHT 1
VIEWPOINT 0 0 0 1 0 0 0
POINTS 1397
DATA ascii
-1 -0.15625 -0.5 9.1476764e-41
-1 -0.125 -0.5 9.1476764e-41
-1 -0.09375 -0.5 9.1476764e-41
-1 -0.0625 -0.5 9.1476764e-41
-1 -0.03125 -0.5 9.1476764e-41
-1 0 -0.5 9.1476764e-41
-1 0.03125 -0.5 9.1476764e-41
-1 0.0625 -0.5 9.1476764e-41
-1 0.09375 -0.5 9.1476764e-41
-1 0.125 -0.5 9.1476764e-41
-1 0.15625 -0.5 9.1476764e-41
-1 0.1875 -0.5 9.1476764e-41
-1 0.21875 -0.5 9.1476764e-41
-1 0.25 -0.5 9.1476764e-41
-1 0.28125 -0.5 9.1476764e-41
-1 0.3125 -0.5 9.1476764e-41
-1 0.34375 -0.5 9.1476764e-41
-1 0.375 -0.5 9.1476764e-41
-1 0.40625 -0.5 9.1476764e-41
-1 0.4375 -0.5 9.1476764e-41
-1 0.46875 -0.5 9.1476764e-41
-0.96875 -0.5 -0.5 9.1476764e-41
-0.96875 -0.46875 -0.5 9.1476764e-41
-0.96875 -0.4375 -0.5 9.1476764e-41
-0.96875 -0.40625 -0.5 9.1476764e-41
-0.96875 -0.375 -0.5 9.1476764e-41
-0.96875 -0.34375 -0.5 9.1476764e-41
-0.96875 -0.3125 -0.5 9.1476764e-41
-0.96875 -0.28125 -0.5 9.1476764e-41
-0.96875 -0.25 -0.5 9.1476764e-41
-0.96875 -0.21875 -0.5 9.1476764e-41
-0.96875 -0.1875 -0.5 9.1476764e-41
-0.96875 -0.15625 -0.5 9.1476764e-41
-0.96875 -0.125 -0.5 9.1476764e-41
-0.96875 -0.09375 -0.5 9.1476764e-41
-0.96875 -0.0625 -0.5 9.1476764e-41
-0.96875 -0.03125 -0.5 9.1476764e-41
-0.96875 0 -0.5 9.1476764e-41
-0.96875 0.03125 -0.5 9.1476764e-41
-0.96875 0.0625 -0.5 9.1476764e-41
-0.96875 0.09375 -0.5 9.1476764e-41
-0.96875 0.125 -0.5 9.1476764e-41
-0.96875 0.15625 -0.5 9.1476764e-41
-0.96875 0.1875 -0.5 9.1476764e-41
-0.96875 0.21875 -0.5 9.1476764e-41
-0.96875 0.25 -0.5 9.1476764e-41
-0.96875 0.28125 -0.5 9.1476764e-41
-0.96875 0.3125 -0.5 9.1476764e-41
-0.96875 0.34375 -0.5 9.1476764e-41
-0.96875 0.375 -0.5 9.1476764e-41
-0.96875 0.40625 -0.5 9.1476764e-41
-0.96875 0.4375 -0.5 9.1476764e-41
-0.96875 0.46875 -0.5 9.1476764e-41
-0.9375 -0.5 -0.5 9.1476764e-41
-0.9375 -0.46875 -0.5 9.1476764e-41
-0.9375 -0.4375 -0.5 9.1476764e-41
-0.9375 -0.40625 -0.5 9.1476764e-41
-0.9375 -0.375 -0.5 9.1476764e-41
-0.9375 -0.34375 -0.5 9.1476764e-41
-0.9375 -0.3125 -0.5 9.1476764e-41
-0.9375 -0.28125 -0.5 9.1476764e-41
-0.9375 -0.25 -0.5 9.1476764e-41
-0.9375 -0.21875 -0.5 9.1476764e-41
-0.9375 -0.1875 -0.5 9.1476764e-41
-0.9375 -0.15625 -0.5 9.1476764e-41
-0.9375 -0.125 -0.5 9.1476764e-41
-0.9375 -0.09375 -0.5 9.1476764e-41
-0.9375 -0.0625 -0.5 9.1476764e-41
-0.9375 -0.03125 -0.5 9.1476764e-41
-0.9375 0 -0.5 9.1476764e-41
-0.9375 0.03125 -0.5 9.1476764e-41
-0.9375 0.0625 -0.5 9.1476764e-41
-0.9375 0.09375 -0.5 9.1476764e-41
-0.9375 0.125 -0.5 9.1476764e-41
-0.9375 0.15625 -0.5 9.1476764e-41
-0.9375 0.1875 -0.5 9.1476764e-41
-0.9375 0.21875 -0.5 9.1476764e-41
-0.9375 0.25 -0.5 9.1476764e-41
-0.9375 0.28125 -0.5 9.1476764e-41
-0.9375 0.3125 -0.5 9.1476764e-41
-0.9375 0.34375 -0.5 9.1476764e-41
-0.9375 0.375 -0.5 9.1476764e-41
-0.9375 0.40625 -0.5 9.1476764e-41
-0.9375 0.4375 -0.5 9.1476764e-41
-0.9375 0.46875 -0.5 9.1476764e-41
-0.90625 -0.5 -0.5 9.1476764e-41
-0.90625 -0.46875 -0.5 9.1476764e-41
-0.90625 -0.4375 -0.5 9.1476764e-41
-0.90625 -0.40625 -0.5 9.1476764e-41
-0.90625 -0.375 -0.5 9.1476764e-41
-0.90625 -0.34375 -0.5 9.1476764e-41
-0.90625 -0.3125 -0.5 9.1476764e-41
-0.90625 -0.28125 -0.5 9.1476764e-41
-0.90625 -0.25 -0.5 9.1476764e-41
-0.90625 -0.21875 -0.5 9.1476764e-41
-0.90625 -0.1875 -0.5 9.1476764e-41
-0.90625 -0.15625 -0.5 9.1476764e-41
-0.90625 -0.125 -0.5 9.1476764e-41
-0.90625 -0.09375 -0.5 9.1476764e-41
-0.90625 -0.0625 -0.5 9.1476764e-41
-0.90625 -0.03125 -0.5 9.1476764e-41
-0.90625 0 -0.5 9.1476764e-41
-0.90625 0.03125 -0.5 9.1476764e-41
-0.90625 0.0625 -0.5 9.1476764e-41
-0.90625 0.09375 -0.5 9.1476764e-41
-0.90625 0.125 -0.5 9.1476764e-41
-0.90625 0.15625 -0.5 9.1476764e-41
-0.90625 0.1875 -0.5 9.1476764e-41
-0.90625 0.21875 -0.5 9.1476764e-41
-0.90625 0.25 -0.5 9.1476764e-41
-0.90625 0.28125 -0.5 9.1476764e-41
-0.90625 0.3125 -0.5 9.1476764e-41
-0.90625 0.34375 -0.5 9.1476764e-41
-0.90625 0.375 -0.5 9.1476764e-41
-0.90625 0.40625 -0.5 9.1476764e-41
-0.90625 0.4375 -0.5 9.1476764e-41
-0.90625 0.46875 -0.5 9.1476764e-41
-0.875 -0.5 -0.5 9.1476764e-41
-0.875 -0.46875 -0.5 9.1476764e-41
-0.875 -0.4375 -0.5 9.1476764e-41
-0.875 -0.40625 -0.5 9.1476764e-41
-0.875 -0.375 -0.5 9.1476764e-41
-0.875 -0.34375 -0.5 9.1476764e-41
-0.875 -0.3125 -0.5 9.1476764e-41
-0.875 -0.28125 -0.5 9.1476764e-41
-0.875 -0.25 -0.5 9.1476764e-41
-0.875 -0.21875 -0.5 9.1476764e-41
-0.875 -0.1875 -0.5 9.1476764e-41
-0.875 -0.15625 -0.5 9.1476764e-41
-0.875 -0.125 -0.5 9.1476764e-41
-0.875 -0.09375 -0.5 9.1476764e-41
-0.875 -0.0625 -0.5 9.1476764e-41
-0.875 -0.03125 -0.5 9.1476764e-41
-0.875 0 -0.5 9.1476764e-41
-0.875 0.03125 -0.5 9.1476764e-41
-0.875 0.0625 -0.5 9.1476764e-41
-0.875 0.09375 -0.5 9.1476764e-41
-0.875 0.125 -0.5 9.1476764e-41
-0.875 0.15625 -0.5 9.1476764e-41
-0.875 0.1875 -0.5 9.1476764e-41
-0.875 0.21875 -0.5 9.1476764e-41
-0.875 0.25 -0.5 9.1476764e-41
-0.875 0.28125 -0.5 9.1476764e-41
-0.875 0.3125 -0.5 9.1476764e-41
-0.875 0.34375 -0.5 9.1476764e-41
-0.875 0.375 -0.5 9.1476764e-41
-0.875 0.40625 -0.5 9.1476764e-41
-0.875 0.4375 -0.5 9.1476764e-41
-0.875 0.46875 -0.5 9.1476764e-41
-0.84375 -0.5 -0.5 9.1476764e-41
-0.84375 -0.46875 -0.5 9.1476764e-41
-0.84375 -0.4375 -0.5 9.1476764e-41
-0.84375 -0.40625 -0.5 9.1476764e-41
-0.84375 -0.375 -0.5 9.1476764e-41
-0.84375 -0.34375 -0.5 9.1476764e-41
-0.84375 -0.3125 -0.5 9.1476764e-41
-0.84375 -0.28125 -0.5 9.1476764e-41
-0.84375 -0.25 -0.5 9.1476764e-41
-0.84375 -0.21875 -0.5 9.1476764e-41
-0.84375 -0.1875 -0.5 9.1476764e-41
-0.84375 -0.15625 -0.5 9.1476764e-41
-0.84375 -0.125 -0.5 9.1476764e-41
-0.84375 -0.09375 -0.5 9.1476764e-41
-0.84375 -0.0625 -0.5 9.1476764e-41
-0.84375 -0.03125 -0.5 9.1476764e-41
-0.84375 0 -0.5 9.1476764e-41
-0.84375 0.03125 -0.5 9.1476764e-41
-0.84375 0.0625 -0.5 9.1476764e-41
-0.84375 0.09375 -0.5 9.1476764e-41
-0.84375 0.125 -0.5 9.1476764e-41
-0.84375 0.15625 -0.5 9.1476764e-41
-0.84375 0.1875 -0.5 9.1476764e-41
-0.84375 0.21875 -0.5 9.1476764e-41
-0.84375 0.25 -0.5 9.1476764e-41
-0.84375 0.28125 -0.5 9.1476764e-41
-0.84375 0.3125 -0.5 9.1476764e-41
-0.84375 0.34375 -0.5 9.1476764e-41
-0.84375 0.375 -0.5 9.1476764e-41
-0.84375 0.40625 -0.5 9.1476764e-41
-0.84375 0.4375 -0.5 9.1476764e-41
-0.84375 0.46875 -0.5 9.1476764e-41
-0.8125 -0.5 -0.5 9.1476764e-41
-0.8125 -0.46875 -0.5 9.1476764e-41
-0.8125 -0.4375 -0.5 9.1476764e-41
-0.8125 -0.40625 -0.5 9.1476764e-41
-0.8125 -0.375 -0.5 9.1476764e-41
-0.8125 -0.34375 -0.5 9.1476764e-41
-0.8125 -0.3125 -0.5 9.1476764e-41
-0.8125 -0.28125 -0.5 9.1476764e-41
-0.8125 -0.25 -0.5 9.1476764e-41
-0.8125 -0.21875 -0.5 9.1476764e-41
-0.8125 -0.1875 -0.5 9.1476764e-41
-0.8125 -0.15625 -0.5 9.1476764e-41
-0.8125 -0.125 -0.5 9.1476764e-41
-0.8125 -0.09375 -0.5 9.1476764e-41
-0.8125 -0.0625 -0.5 9.1476764e-41
-0.8125 -0.03125 -0.5 9.1476764e-41
-0.8125 0 -0.5 9.1476764e-41
-0.8125 0.03125 -0.5 9.1476764e-41
-0.8125 0.0625 -0.5 9.1476764e-41
-0.8125 0.09375 -0.5 9.1476764e-41
-0.8125 0.125 -0.5 9.1476764e-41
-0.8125 0.15625 -0.5 9.1476764e-41
-0.8125 0.1875 -0.5 9.1476764e-41
-0.8125 0.21875 -0.5 9.1476764e-41
-0.8125 0.25 -0.5 9.1476764e-41
-0.8125 0.28125 -0.5 9.1476764e-41
-0.8125 0.3125 -0.5 9.1476764e-41
-0.8125 0.34375 -0.5 9.1476764e-41
-0.8125 0.375 -0.5 9.1476764e-41
-0.8125 0.40625 -0.5 9.1476764e-41
-0.8125 0.4375 -0.5 9.1476764e-41
-0.8125 0.46875 -0.5 9.1476764e-41
-0.78125 -0.5 -0.5 9.1476764e-41
-0.78125 -0.46875 -0.5 9.1476764e-41
-0.78125 -0.4375 -0.5 9.1476764e-41
-0.78125 -0.40625 -0.5 9.1476764e-41
-0.78125 -0.375 -0.5 9.1476764e-41
-0.78125 -0.34375 -0.5 9.1476764e-41
-0.78125 -0.3125 -0.5 9.1476764e-41
-0.78125 -0.28125 -0.5 9.1476764e-41
-0.78125 -0.25 -0.5 9.1476764e-41
-0.78125 -0.21875 -0.5 9.1476764e-41
-0.78125 -0.1875 -0.5 9.1476764e-41
-0.78125 -0.15625 -0.5 9.1476764e-41
-0.78125 -0.125 -0.5 9.1476764e-41
-0.78125 -0.09375 -0.5 9.1476764e-41
-0.78125 -0.0625 -0.5 9.1476764e-41
-0.78125 -0.03125 -0.5 9.1476764e-41
-0.78125 0 -0.5 9.1476764e-41
-0.78125 0.03125 -0.5 9.1476764e-41
-0.78125 0.0625 -0.5 9.1476764e-41
-0.78125 0.09375 -0.5 9.1476764e-41
-0.78125 0.125 -0.5 9.1476764e-41
-0.78125 0.15625 -0.5 9.1476764e-41
-0.78125 0.1875 -0.5 9.1476764e-41
-0.78125 0.21875 -0.5 9.1476764e-41
-0.78125 0.25 -0.5 9.1476764e-41
-0.78125 0.28125 -0.5 9.1476764e-41
-0.78125 0.3125 -0.5 9.1476764e-41
-0.78125 0.34375 -0.5 9.1476764e-41
-0.78125 0.375 -0.5 9.1476764e-41
-0.78125 0.40625 -0.5 9.1476764e-41
-0.78125 0.4375 -0.5 9.1476764e-41
-0.78125 0.46875 -0.5 9.1476764e-41
-0.75 -0.5 -0.5 9.1476764e-41
-0.75 -0.46875 -0.5 9.1476764e-41
-0.75 -0.4375 -0.5 9.1476764e-41
-0.75 -0.40625 -0.5 9.1476764e-41
-0.75 -0.375 -0.5 9.1476764e-41
-0.75 -0.34375 -0.5 9.1476764e-41
-0.75 -0.3125 -0.5 9.1476764e-41
-0.75 -0.28125 -0.5 9.1476764e-41
-0.75 -0.25 -0.5 9.1476764e-41
-0.75 -0.21875 -0.5 9.1476764e-41
-0.75 -0.1875 -0.5 9.1476764e-41
-0.75 -0.15625 -0.5 9.1476764e-41
-0.75 -0.125 -0.5 9.1476764e-41
-0.75 -0.09375 -0.5 9.1476764e-41
-0.75 -0.0625 -0.5 9.1476764e-41
-0.75 -0.03125 -0.5 9.1476764e-41
-0.75 0 -0.5 9.1476764e-41
-0.75 0.03125 -0.5 9.1476764e-41
-0.75 0.0625 -0.5 9.1476764e-41
-0.75 0.09375 -0.5 9.1476764e-41
-0.75 0.125 -0.5 9.1476764e-41
-0.75 0.15625 -0.5 9.1476764e-41
-0.75 0.1875 -0.5 9.1476764e-41
-0.75 0.21875 -0.5 9.1476764e-41
-0.75 0.25 -0.5 9.1476764e-41
-0.75 0.28125 -0.5 9.1476764e-41
-0.75 0.3125 -0.5 9.1476764e-41
-0.75 0.34375 -0.5 9.1476764e-41
-0.75 0.375 -0.5 9.1476764e-41
-0.75 0.40625 -0.5 9.1476764e-41
-0.75 0.4375 -0.5 9.1476764e-41
-0.75 0.46875 -0.5 9.1476764e-41
-0.71875 -0.5 -0.5 9.1476764e-41
-0.71875 -0.46875 -0.5 9.1476764e-41
-0.71875 -0.4375 -0.5 9.1476764e-41
-0.71875 -0.40625 -0.5 9.1476764e-41
-0.71875 -0.375 -0.5 9.1476764e-41
-0.71875 -0.34375 -0.5 9.1476764e-41
-0.71875 -0.3125 -0.5 9.1476764e-41
-0.71875 -0.28125 -0.5 9.1476764e-41
-0.71875 -0.25 -0.5 9.1476764e-41
-0.71875 -0.21875 -0.5 9.1476764e-41
-0.71875 -0.1875 -0.5 9.1476764e-41
-0.71875 -0.15625 -0.5 9.1476764e-41
-0.71875 -0.125 -0.5 9.1476764e-41
-0.71875 -0.09375 -0.5 9.1476764e-41
-0.71875 -0.0625 -0.5 9.1476764e-41
-0.71875 -0.03125 -0.5 9.1476764e-41
-0.71875 0 -0.5 9.1476764e-41
-0.71875 0.03125 -0.5 9.1476764e-41
-0.71875 0.0625 -0.5 9.1476764e-41
-0.71875 0.09375 -0.5 9.1476764e-41
-0.71875 0.125 -0.5 9.1476764e-41
-0.71875 0.15625 -0.5 9.1476764e-41
-0.71875 0.1875 -0.5 9.1476764e-41
-0.71875 0.21875 -0.5 9.1476764e-41
-0.71875 0.25 -0.5 9.1476764e-41
-0.71875 0.28125 -0.5 9.1476764e-41
-0.71875 0.3125 -0.5 9.1476764e-41
-0.71875 0.34375 -0.5 9.1476764e-41
-0.71875 0.375 -0.5 9.1476764e-41
-0.71875 0.40625 -0.5 9.1476764e-41
-0.71875 0.4375 -0.5 9.1476764e-41
-0.71875 0.46875 -0.5 9.1476764e-41
-0.6875 -0.5 -0.5 9.1476764e-41
-0.6875 -0.46875 -0.5 9.1476764e-41
-0.6875 -0.4375 -0.5 9.1476764e-41
-0.6875 -0.40625 -0.5 9.1476764e-41
-0.6875 -0.375 -0.5 9.1476764e-41
-0.6875 -0.34375 -0.5 9.1476764e-41
-0.6875 -0.3125 -0.5 9.1476764e-41
-0.6875 -0.28125 -0.5 9.1476764e-41
-0.6875 -0.25 -0.5 9.1476764e-41
-0.6875 -0.21875 -0.5 9.1476764e-41
-0.6875 -0.1875 -0.5 9.1476764e-41
-0.6875 -0.15625 -0.5 9.1476764e-41
-0.6875 -0.125 -0.5 9.1476764e-41
-0.6875 -0.09375 -0.5 9.1476764e-41
-0.6875 -0.0625 -0.5 9.1476764e-41
-0.6875 -0.03125 -0.5 9.1476764e-41
-0.6875 0 -0.5 9.1476764e-41
-0.6875 0.03125 -0.5 9.1476764e-41
-0.6875 0.0625 -0.5 9.1476764e-41
-0.6875 0.09375 -0.5 9.1476764e-41
-0.6875 0.125 -0.5 9.1476764e-41
-0.6875 0.15625 -0.5 9.1476764e-41
-0.6875 0.1875 -0.5 9.1476764e-41
-0.6875 0.21875 -0.5 9.1476764e-41
-0.6875 0.25 -0.5 9.1476764e-41
-0.6875 0.28125 -0.5 9.1476764e-41
-0.6875 0.3125 -0.5 9.1476764e-41
-0.6875 0.34375 -0.5 9.1476764e-41
-0.6875 0.375 -0.5 9.1476764e-41
-0.6875 0.40625 -0.5 9.1476764e-41
-0.6875 0.4375 -0.5 9.1476764e-41
-0.6875 0.46875 -0.5 9.1476764e-41
-0.65625 -0.5 -0.5 9.1476764e-41
-0.65625 -0.46875 -0.5 9.1476764e-41
-0.65625 -0.4375 -0.5 9.1476764e-41
-0.65625 -0.40625 -0.5 9.1476764e-41
-0.65625 -0.375 -0.5 9.1476764e-41
-0.65625 -0.34375 -0.5 9.1476764e-41
-0.65625 -0.3125 -0.5 9.1476764e-41
-0.65625 -0.28125 -0.5 9.1476764e-41
-0.65625 -0.25 -0.5 9.1476764e-41
-0.65625 -0.21875 -0.5 9.1476764e-41
-0.65625 -0.1875 -0.5 9.1476764e-41
-0.65625 -0.15625 -0.5 9.1476764e-41
-0.65625 -0.125 -0.5 9.1476764e-41
-0.65625 -0.09375 -0.5 9.1476764e-41
-0.65625 -0.0625 -0.5 9.1476764e-41
-0.65625 -0.03125 -0.5 9.1476764e-41
-0.65625 0 -0.5 9.1476764e-41
-0.65625 0.03125 -0.5 9.1476764e-41
-0.65625 0.0625 -0.5 9.1476764e-41
-0.65625 0.09375 -0.5 9.1476764e-41
-0.65625 0.125 -0.5 9.1476764e-41
-0.65625 0.15625 -0.5 9.1476764e-41
-0.65625 0.1875 -0.5 9.1476764e-41
-0.65625 0.21875 -0.5 9.1476764e-41
-0.65625 0.25 -0.5 9.1476764e-41
-0.65625 0.28125 -0.5 9.1476764e-41
-0.65625 0.3125 -0.5 9.1476764e-41
-0.65625 0.34375 -0.5 9.1476764e-41
-0.65625 0.375 -0.5 9.1476764e-41
-0.65625 0.40625 -0.5 9.1476764e-41
-0.65625 0.4375 -0.5 9.1476764e-41
-0.65625 0.46875 -0.5 9.1476764e-41
-0.625 -0.5 -0.5 9.1476764e-41
-0.625 -0.46875 -0.5 9.1476764e-41
-0.625 -0.4375 -0.5 9.1476764e-41
-0.625 -0.40625 -0.5 9.1476764e-41
-0.625 -0.375 -0.5 9.1476764e-41
-0.625 -0.34375 -0.5 9.1476764e-41
-0.625 -0.3125 -0.5 9.1476764e-41
-0.625 -0.28125 -0.5 9.1476764e-41
-0.625 -0.25 -0.5 9.1476764e-41
-0.625 -0.21875 -0.5 9.1476764e-41
-0.625 -0.1875 -0.5 9.1476764e-41
-0.625 -0.15625 -0.5 9.1476764e-41
-0.625 -0.125 -0.5 9.1476764e-41
-0.625 -0.09375 -0.5 9.1476764e-41
-0.625 -0.0625 -0.5 9.1476764e-41
-0.625 -0.03125 -0.5 9.1476764e-41
-0.625 0 -0.5 9.1476764e-41
-0.625 0.03125 -0.5 9.1476764e-41
-0.625 0.0625 -0.5 9.1476764e-41
-0.625 0.09375 -0.5 9.1476764e-41
-0.625 0.125 -0.5 9.1476764e-41
-0.625 0.15625 -0.5 9.1476764e-41
-0.625 0.1875 -0.5 9.1476764e-41
-0.625 0.21875 -0.5 9.1476764e-41
-0.625 0.25 -0.5 9.1476764e-41
-0.625 0.28125 -0.5 9.1476764e-41
-0.625 0.3125 -0.5 9.1476764e-41
-0.625 0.34375 -0.5 9.1476764e-41
-0.625 0.375 -0.5 9.1476764e-41
-0.625 0.40625 -0.5 9.1476764e-41
-0.625 0.4375 -0.5 9.1476764e-41
-0.625 0.46875 -0.5 9.1476764e-41
-0.59375 -0.5 -0.5 9.1476764e-41
-0.59375 -0.46875 -0.5 9.1476764e-41
-0.59375 -0.4375 -0.5 9.1476764e-41
-0.59375 -0.40625 -0.5 9.1476764e-41
-0.59375 -0.375 -0.5 9.1476764e-41
-0.59375 -0.34375 -0.5 9.1476764e-41
-0.59375 -0.3125 -0.5 9.1476764e-41
-0.59375 -0.28125 -0.5 9.1476764e-41
-0.59375 -0.25 -0.5 9.1476764e-41
-0.59375 -0.21875 -0.5 9.1476764e-41
-0.59375 -0.1875 -0.5 9.1476764e-41
-0.59375 -0.15625 -0.5 9.1476764e-41
-0.59375 -0.125 -0.5 9.1476764e-41
-0.59375 -0.09375 -0.5 9.1476764e-41
-0.59375 -0.0625 -0.5 9.1476764e-41
-0.59375 -0.03125 -0.5 9.1476764e-41
-0.59375 0 -0.5 9.1476764e-41
-0.59375 0.03125 -0.5 9.1476764e-41
-0.59375 0.0625 -0.5 9.1476764e-41
-0.59375 0.09375 -0.5 9.1476764e-41
-0.59375 0.125 -0.5 9.1476764e-41
-0.59375 0.15625 -0.5 9.1476764e-41
-0.59375 0.1875 -0.5 9.1476764e-41
-0.59375 0.21875 -0.5 9.1476764e-41
-0.59375 0.25 -0.5 9.1476764e-41
-0.59375 0.28125 -0.5 9.1476764e-41
-0.59375 0.3125 -0.5 9.1476764e-41
-0.59375 0.34375 -0.5 9.1476764e-41
-0.59375 0.375 -0.5 9.1476764e-41
-0.59375 0.40625 -0.5 9.1476764e-41
-0.59375 0.4375 -0.5 9.1476764e-41
-0.59375 0.46875 -0.5 9.1476764e-41
-0.5625 -0.5 -0.5 9.1476764e-41
-0.5625 -0.46875 -0.5 9.1476764e-41
-0.5625 -0.4375 -0.5 9.1476764e-41
-0.5625 -0.40625 -0.5 9.1476764e-41
-0.5625 -0.375 -0.5 9.1476764e-41
-0.5625 -0.34375 -0.5 9.1476764e-41
-0.5625 -0.3125 -0.5 9.1476764e-41
-0.5625 -0.28125 -0.5 9.1476764e-41
-0.5625 -0.25 -0.5 9.1476764e-41
-0.5625 -0.21875 -0.5 9.1476764e-41
-0.5625 -0.1875 -0.5 9.1476764e-41
-0.5625 -0.15625 -0.5 9.1476764e-41
-0.5625 -0.125 -0.5 9.1476764e-41
-0.5625 -0.09375 -0.5 9.1476764e-41
-0.5625 -0.0625 -0.5 9.1476764e-41
-0.5625 -0.03125 -0.5 9.1476764e-41
-0.5625 0 -0.5 9.1476764e-41
-0.5625 0.03125 -0.5 9.1476764e-41
-0.5625 0.0625 -0.5 9.1476764e-41
-0.5625 0.09375 -0.5 9.1476764e-41
-0.5625 0.125 -0.5 9.1476764e-41
-0.5625 0.15625 -0.5 9.1476764e-41
-0.5625 0.1875 -0.5 9.1476764e-41
-0.5625 0.21875 -0.5 9.1476764e-41
-0.5625 0.25 -0.5 9.1476764e-41
-0.5625 0.28125 -0.5 9.1476764e-41
-0.5625 0.3125 -0.5 9.1476764e-41
-0.5625 0.34375 -0.5 9.1476764e-41
-0.5625 0.375 -0.5 9.1476764e-41
-0.5625 0.40625 -0.5 9.1476764e-41
-0.5625 0.4375 -0.5 9.1476764e-41
-0.5625 0.46875 -0.5 9.1476764e-41
-0.53125 -0.5 -0.5 9.1476764e-41
-0.53125 -0.46875 -0.5 9.1476764e-41
-0.53125 -0.4375 -0.5 9.1476764e-41
-0.53125 -0.40625 -0.5 9.1476764e-41
-0.53125 -0.375 -0.5 9.1476764e-41
-0.53125 -0.34375 -0.5 9.1476764e-41
-0.53125 -0.3125 -0.5 9.1476764e-41
-0.53125 -0.28125 -0.5 9.1476764e-41
-0.53125 -0.25 -0.5 9.1476764e-41
-0.53125 -0.21875 -0.5 9.1476764e-41
-0.53125 -0.1875 -0.5 9.1476764e-41
-0.53125 -0.15625 -0.5 9.1476764e-41
-0.53125 -0.125 -0.5 9.1476764e-41
-0.53125 -0.09375 -0.5 9.1476764e-41
-0.53125 -0.0625 -0.5 9.1476764e-41
-0.53125 -0.03125 -0.5 9.1476764e-41
-0.53125 0 -0.5 9.1476764e-41
-0.53125 0.03125 -0.5 9.1476764e-41
-0.53125 0.0625 -0.5 9.1476764e-41
-0.53125 0.09375 -0.5 9.1476764e-41
-0.53125 0.125 -0.5 9.1476764e-41
-0.53125 0.15625 -0.5 9.1476764e-41
-0.53125 0.1875 -0.5 9.1476764e-41
-0.53125 0.21875 -0.5 9.1476764e-41
-0.53125 0.25 -0.5 9.1476764e-41
-0.53125 0.28125 -0.5 9.1476764e-41
-0.53125 0.3125 -0.5 9.1476764e-41
-0.53125 0.34375 -0.5 9.1476764e-41
-0.53125 0.375 -0.5 9.1476764e-41
-0.53125 0.40625 -0.5 9.1476764e-41
-0.53125 0.4375 -0.5 9.1476764e-41
-0.53125 0.46875 -0.5 9.1476764e-41
-0.5 -0.5 -0.5 9.1476764e-41
-0.5 -0.5 -0.46875 9.1476764e-41
-0.5 -0.5 -0.4375 9.1476764e-41
-0.5 -0.5 -0.40625 9.1476764e-41
-0.5 -0.5 -0.375 9.1476764e-41
-0.5 -0.5 -0.34375 9.1476764e-41
-0.5 -0.5 -0.3125 9.1476764e-41
-0.5 -0.5 -0.28125 9.1476764e-41
-0.5 -0.5 -0.25 9.1476764e-41
-0.5 -0.5 -0.21875 9.1476764e-41
-0.5 -0.5 -0.1875 9.1476764e-41
-0.5 -0.5 -0.15625 9.1476764e-41
-0.5 -0.5 -0.125 9.1476764e-41
-0.5 -0.5 -0.09375 9.1476764e-41
-0.5 -0.5 -0.0625 9.1476764e-41
-0.5 -0.5 -0.03125 9.1476764e-41
-0.5 -0.5 0 9.1476764e-41
-0.5 -0.5 0.03125 9.1476764e-41
-0.5 -0.5 0.0625 9.1476764e-41
-0.5 -0.5 0.09375 9.1476764e-41
-0.5 -0.5 0.125 9.1476764e-41
-0.5 -0.5 0.15625 9.1476764e-41
-0.5 -0.5 0.1875 9.1476764e-41
-0.5 -0.5 0.21875 9.1476764e-41
-0.5 -0.5 0.25 9.1476764e-41
-0.5 -0.5 0.28125 9.1476764e-41
-0.5 -0.5 0.3125 9.1476764e-41
-0.5 -0.5 0.34375 9.1476764e-41
-0.5 -0.5 0.375 9.1476764e-41
-0.5 -0.5 0.40625 9.1476764e-41
-0.5 -0.5 0.4375 9.1476764e-41
-0.5 -0.5 0.46875 9.1476764e-41
-0.5 -0.46875 -0.5 9.1476764e-41
-0.5 -0.46875 -0.46875 9.1476764e-41
-0.5 -0.46875 -0.4375 9.1476764e-41
-0.5 -0.46875 -0.40625 9.1476764e-41
-0.5 -0.46875 -0.375 9.1476764e-41
-0.5 -0.46875 -0.34375 9.1476764e-41
-0.5 -0.46875 -0.3125 9.1476764e-41
-0.5 -0.46875 -0.28125 9.1476764e-41
-0.5 -0.46875 -0.25 9.1476764e-41
-0.5 -0.46875 -0.21875 9.1476764e-41
-0.5 -0.46875 -0.1875 9.1476764e-41
-0.5 -0.46875 -0.15625 9.1476764e-41
-0.5 -0.46875 -0.125 9.1476764e-41
-0.5 -0.46875 -0.09375 9.1476764e-41
-0.5 -0.46875 -0.0625 9.1476764e-41
-0.5 -0.46875 -0.03125 9.1476764e-41
-0.5 -0.46875 0 9.1476764e-41
-0.5 -0.46875 0.03125 9.1476764e-41
-0.5 -0.46875 0.0625 9.1476764e-41
-0.5 -0.46875 0.09375 9.1476764e-41
-0.5 -0.46875 0.125 9.1476764e-41
-0.5 -0.46875 0.15625 9.1476764e-41
-0.5 -0.46875 0.1875 9.1476764e-41
-0.5 -0.46875 0.21875 9.1476764e-41
-0.5 -0.46875 0.25 9.1476764e-41
-0.5 -0.46875 0.28125 9.1476764e-41
-0.5 -0.46875 0.3125 9.1476764e-41
-0.5 -0.46875 0.34375 9.1476764e-41
-0.5 -0.46875 0.375 9.1476764e-41
-0.5 -0.46875 0.40625 9.1476764e-41
-0.5 -0.46875 0.4375 9.1476764e-41
-0.5 -0.46875 0.46875 9.1476764e-41
-0.5 -0.4375 -0.5 9.1476764e-41
-0.5 -0.4375 -0.46875 9.1476764e-41
-0.5 -0.4375 -0.4375 9.1476764e-41
-0.5 -0.4375 -0.40625 9.1476764e-41
-0.5 -0.4375 -0.375 9.1476764e-41
-0.5 -0.4375 -0.34375 9.1476764e-41
-0.5 -0.4375 -0.3125 9.1476764e-41
-0.5 -0.4375 -0.28125 9.1476764e-41
-0.5 -0.4375 -0.25 9.1476764e-41
-0.5 -0.4375 -0.21875 9.1476764e-41
-0.5 -0.4375 -0.1875 9.1476764e-41
-0.5 -0.4375 -0.15625 9.1476764e-41
-0.5 -0.4375 -0.125 9.1476764e-41
-0.5 -0.4375 -0.09375 9.1476764e-41
-0.5 -0.4375 -0.0625 9.1476764e-41
-0.5 -0.4375 -0.03125 9.1476764e-41
-0.5 -0.4375 0 9.1476764e-41
-0.5 -0.4375 0.03125 9.1476764e-41
-0.5 -0.4375 0.0625 9.1476764e-41
-0.5 -0.4375 0.09375 9.1476764e-41
-0.5 -0.4375 0.125 9.1476764e-41
-0.5 -0.4375 0.15625 9.1476764e-41
-0.5 -0.4375 0.1875 9.1476764e-41
-0.5 -0.4375 0.21875 9.1476764e-41
-0.5 -0.4375 0.25 9.1476764e-41
-0.5 -0.4375 0.28125 9.1476764e-41
-0.5 -0.4375 0.3125 9.1476764e-41
-0.5 -0.4375 0.34375 9.1476764e-41
-0.5 -0.4375 0.375 9.1476764e-41
-0.5 -0.4375 0.40625 9.1476764e-41
-0.5 -0.4375 0.4375 9.1476764e-41
-0.5 -0.4375 0.46875 9.1476764e-41
-0.5 -0.40625 -0.5 9.1476764e-41
-0.5 -0.40625 -0.46875 9.1476764e-41
-0.5 -0.40625 -0.4375 9.1476764e-41
-0.5 -0.40625 -0.40625 9.1476764e-41
-0.5 -0.40625 -0.375 9.1476764e-41
-0.5 -0.40625 -0.34375 9.1476764e-41
-0.5 -0.40625 -0.3125 9.1476764e-41
-0.5 -0.40625 -0.28125 9.1476764e-41
-0.5 -0.40625 -0.25 9.1476764e-41
-0.5 -0.40625 -0.21875 9.1476764e-41
-0.5 -0.40625 -0.1875 9.1476764e-41
-0.5 -0.40625 -0.15625 9.1476764e-41
-0.5 -0.40625 -0.125 9.1476764e-41
-0.5 -0.40625 -0.09375 9.1476764e-41
-0.5 -0.40625 -0.0625 9.1476764e-41
-0.5 -0.40625 -0.03125 9.1476764e-41
-0.5 -0.40625 0 9.1476764e-41
-0.5 -0.40625 0.03125 9.1476764e-41
-0.5 -0.40625 0.0625 9.1476764e-41
-0.5 -0.40625 0.09375 9.1476764e-41
-0.5 -0.40625 0.125 9.1476764e-41
-0.5 -0.40625 0.15625 9.1476764e-41
-0.5 -0.40625 0.1875 9.1476764e-41
-0.5 -0.40625 0.21875 9.1476764e-41
-0.5 -0.40625 0.25 9.1476764e-41
-0.5 -0.40625 0.28125 9.1476764e-41
-0.5 -0.40625 0.3125 9.1476764e-41
-0.5 -0.40625 0.34375 9.1476764e-41
-0.5 -0.40625 0.375 9.1476764e-41
-0.5 -0.40625 0.40625 9.1476764e-41
-0.5 -0.40625 0.4375 9.1476764e-41
-0.5 -0.40625 0.46875 9.1476764e-41
-0.5 -0.375 -0.5 9.1476764e-41
-0.5 -0.375 -0.46875 9.1476764e-41
-0.5 -0.375 -0.4375 9.1476764e-41
-0.5 -0.375 -0.40625 9.1476764e-41
-0.5 -0.375 -0.375 9.1476764e-41
-0.5 -0.375 -0.34375 9.1476764e-41
-0.5 -0.375 -0.3125 9.1476764e-41
-0.5 -0.375 -0.28125 9.1476764e-41
-0.5 -0.375 -0.25 9.1476764e-41
-0.5 -0.375 -0.21875 9.1476764e-41
-0.5 -0.375 -0.1875 9.1476764e-41
-0.5 -0.375 -0.15625 9.1476764e-41
-0.5 -0.375 -0.125 9.1476764e-41
-0.5 -0.375 -0.09375 9.1476764e-41
-0.5 -0.375 -0.0625 9.1476764e-41
-0.5 -0.375 -0.03125 9.1476764e-41
-0.5 -0.375 0 9.1476764e-41
-0.5 -0.375 0.03125 9.1476764e-41
-0.5 -0.375 0.0625 9.1476764e-41
-0.5 -0.375 0.09375 9.1476764e-41
-0.5 -0.375 0.125 9.1476764e-41
-0.5 -0.375 0.15625 9.1476764e-41
-0.5 -0.375 0.1875 9.1476764e-41
-0.5 -0.375 0.21875 9.1476764e-41
-0.5 -0.375 0.25 9.1476764e-41
-0.5 -0.375 0.28125 9.1476764e-41
-0.5 -0.375 0.3125 9.1476764e-41
-0.5 -0.375 0.34375 9.1476764e-41
-0.5 -0.375 0.375 9.1476764e-41
-0.5 -0.375 0.40625 9.1476764e-41
-0.5 -0.375 0.4375 9.1476764e-41
-0.5 -0.375 0.46875 9.1476764e-41
-0.5 -0.34375 -0.5 9.1476764e-41
-0.5 -0.34375 -0.46875 9.1476764e-41
-0.5 -0.34375 -0.4375 9.1476764e-41
-0.5 -0.34375 -0.40625 9.1476764e-41
-0.5 -0.34375 -0.375 9.1476764e-41
-0.5 -0.34375 -0.34375 9.1476764e-41
-0.5 -0.34375 -0.3125 9.1476764e-41
-0.5 -0.34375 -0.28125 9.1476764e-41
-0.5 -0.34375 -0.25 9.1476764e-41
-0.5 -0.34375 -0.21875 9.1476764e-41
-0.5 -0.34375 -0.1875 9.1476764e-41
-0.5 -0.34375 -0.15625 9.1476764e-41
-0.5 -0.34375 -0.125 9.1476764e-41
-0.5 -0.34375 -0.09375 9.1476764e-41
-0.5 -0.34375 -0.0625 9.1476764e-41
-0.5 -0.34375 -0.03125 9.1476764e-41
-0.5 -0.34375 0 9.1476764e-41
-0.5 -0.34375 0.03125 9.1476764e-41
-0.5 -0.34375 0.0625 9.1476764e-41
-0.5 -0.34375 0.09375 9.1476764e-41
-0.5 -0.34375 0.125 9.1476764e-41
-0.5 -0.34375 0.15625 9.1476764e-41
-0.5 -0.34375 0.1875 9.1476764e-41
-0.5 -0.34375 0.21875 9.1476764e-41
-0.5 -0.34375 0.25 9.1476764e-41
-0.5 -0.34375 0.28125 9.1476764e-41
-0.5 -0.34375 0.3125 9.1476764e-41
-0.5 -0.34375 0.34375 9.1476764e-41
-0.5 -0.34375 0.375 9.1476764e-41
-0.5 -0.34375 0.40625 9.1476764e-41
-0.5 -0.34375 0.4375 9.1476764e-41
-0.5 -0.34375 0.46875 9.1476764e-41
-0.5 -0.3125 -0.5 9.1476764e-41
-0.5 -0.3125 -0.46875 9.1476764e-41
-0.5 -0.3125 -0.4375 9.1476764e-41
-0.5 -0.3125 -0.40625 9.1476764e-41
-0.5 -0.3125 -0.375 9.1476764e-41
-0.5 -0.3125 -0.34375 9.1476764e-41
-0.5 -0.3125 -0.3125 9.1476764e-41
-0.5 -0.3125 -0.28125 9.1476764e-41
-0.5 -0.3125 -0.25 9.1476764e-41
-0.5 -0.3125 -0.21875 9.1476764e-41
-0.5 -0.3125 -0.1875 9.1476764e-41
-0.5 -0.3125 -0.15625 9.1476764e-41
-0.5 -0.3125 -0.125 9.1476764e-41
-0.5 -0.3125 -0.09375 9.1476764e-41
-0.5 -0.3125 -0.0625 9.1476764e-41
-0.5 -0.3125 -0.03125 9.1476764e-41
-0.5 -0.3125 0 9.1476764e-41
-0.5 -0.3125 0.03125 9.1476764e-41
-0.5 -0.3125 0.0625 9.1476764e-41
-0.5 -0.3125 0.09375 9.1476764e-41
-0.5 -0.3125 0.125 9.1476764e-41
-0.5 -0.3125 0.15625 9.1476764e-41
-0.5 -0.3125 0.1875 9.1476764e-41
-0.5 -0.3125 0.21875 9.1476764e-41
-0.5 -0.3125 0.25 9.1476764e-41
-0.5 -0.3125 0.28125 9.1476764e-41
-0.5 -0.3125 0.3125 9.1476764e-41
-0.5 -0.3125 0.34375 9.1476764e-41
-0.5 -0.3125 0.375 9.1476764e-41
-0.5 -0.3125 0.40625 9.1476764e-41
-0.5 -0.3125 0.4375 9.1476764e-41
-0.5 -0.3125 0.46875 9.1476764e-41
-0.5 -0.28125 -0.5 9.1476764e-41
-0.5 -0.28125 -0.46875 9.1476764e-41
-0.5 -0.28125 -0.4375 9.1476764e-41
-0.5 -0.28125 -0.40625 9.1476764e-41
-0.5 -0.28125 -0.375 9.1476764e-41
-0.5 -0.28125 -0.34375 9.1476764e-41
-0.5 -0.28125 -0.3125 9.1476764e-41
-0.5 -0.28125 -0.28125 9.1476764e-41
-0.5 -0.28125 -0.25 9.1476764e-41
-0.5 -0.28125 -0.21875 9.1476764e-41
-0.5 -0.28125 -0.1875 9.1476764e-41
-0.5 -0.28125 -0.15625 9.1476764e-41
-0.5 -0.28125 -0.125 9.1476764e-41
-0.5 -0.28125 -0.09375 9.1476764e-41
-0.5 -0.28125 -0.0625 9.1476764e-41
-0.5 -0.28125 -0.03125 9.1476764e-41
-0.5 -0.28125 0 9.1476764e-41
-0.5 -0.28125 0.03125 9.1476764e-41
-0.5 -0.28125 0.0625 9.1476764e-41
-0.5 -0.28125 0.09375 9.1476764e-41
-0.5 -0.28125 0.125 9.1476764e-41
-0.5 -0.28125 0.15625 9.1476764e-41
-0.5 -0.28125 0.1875 9.1476764e-41
-0.5 -0.28125 0.21875 9.1476764e-41
-0.5 -0.28125 0.25 9.1476764e-41
-0.5 -0.28125 0.28125 9.1476764e-41
-0.5 -0.28125 0.3125 9.1476764e-41
-0.5 -0.28125 0.34375 9.1476764e-41
-0.5 -0.28125 0.375 9.1476764e-41
-0.5 -0.28125 0.40625 9.1476764e-41
-0.5 -0.28125 0.4375 9.1476764e-41
-0.5 -0.28125 0.46875 9.1476764e-41
-0.5 -0.25 -0.5 9.1476764e-41
-0.5 -0.25 -0.46875 9.1476764e-41
-0.5 -0.25 -0.4375 9.1476764e-41
-0.5 -0.25 -0.40625 9.1476764e-41
-0.5 -0.25 -0.375 9.1476764e-41
-0.5 -0.25 -0.34375 9.1476764e-41
-0.5 -0.25 -0.3125 9.1476764e-41
-0.5 -0.25 -0.28125 9.1476764e-41
-0.5 -0.25 -0.25 9.1476764e-41
-0.5 -0.25 -0.21875 9.1476764e-41
-0.5 -0.25 -0.1875 9.1476764e-41
-0.5 -0.25 -0.15625 9.1476764e-41
-0.5 -0.25 -0.125 9.1476764e-41
-0.5 -0.25 -0.09375 9.1476764e-41
-0.5 -0.25 -0.0625 9.1476764e-41
-0.5 -0.25 -0.03125 9.1476764e-41
-0.5 -0.25 0 9.1476764e-41
-0.5 -0.25 0.03125 9.1476764e-41
-0.5 -0.25 0.0625 9.1476764e-41
-0.5 -0.25 0.09375 9.1476764e-41
-0.5 -0.25 0.125 9.1476764e-41
-0.5 -0.25 0.15625 9.1476764e-41
-0.5 -0.25 0.1875 9.1476764e-41
-0.5 -0.25 0.21875 9.1476764e-41
-0.5 -0.25 0.25 9.1476764e-41
-0.5 -0.25 0.28125 9.1476764e-41
-0.5 -0.25 0.3125 9.1476764e-41
-0.5 -0.25 0.34375 9.1476764e-41
-0.5 -0.25 0.375 9.1476764e-41
-0.5 -0.25 0.40625 9.1476764e-41
-0.5 -0.25 0.4375 9.1476764e-41
-0.5 -0.25 0.46875 9.1476764e-41
-0.5 -0.21875 -0.5 9.1476764e-41
-0.5 -0.21875 -0.46875 9.1476764e-41
-0.5 -0.21875 -0.4375 9.1476764e-41
-0.5 -0.21875 -0.40625 9.1476764e-41
-0.5 -0.21875 -0.375 9.1476764e-41
-0.5 -0.21875 -0.34375 9.1476764e-41
-0.5 -0.21875 -0.3125 9.1476764e-41
-0.5 -0.21875 -0.28125 9.1476764e-41
-0.5 -0.21875 -0.25 9.1476764e-41
-0.5 -0.21875 -0.21875 9.1476764e-41
-0.5 -0.21875 -0.1875 9.1476764e-41
-0.5 -0.21875 -0.15625 9.1476764e-41
-0.5 -0.21875 -0.125 9.1476764e-41
-0.5 -0.21875 -0.09375 9.1476764e-41
-0.5 -0.21875 -0.0625 9.1476764e-41
-0.5 -0.21875 -0.03125 9.1476764e-41
-0.5 -0.21875 0 9.1476764e-41
-0.5 -0.21875 0.03125 9.1476764e-41
-0.5 -0.21875 0.0625 9.1476764e-41
-0.5 -0.21875 0.09375 9.1476764e-41
-0.5 -0.21875 0.125 9.1476764e-41
-0.5 -0.21875 0.15625 9.1476764e-41
-0.5 -0.21875 0.1875 9.1476764e-41
-0.5 -0.21875 0.21875 9.1476764e-41
-0.5 -0.21875 0.25 9.1476764e-41
-0.5 -0.21875 0.28125 9.1476764e-41
-0.5 -0.21875 0.3125 9.1476764e-41
-0.5 -0.21875 0.34375 9.1476764e-41
-0.5 -0.21875 0.375 9.1476764e-41
-0.5 -0.21875 0.40625 9.1476764e-41
-0.5 -0.21875 0.4375 9.1476764e-41
-0.5 -0.21875 0.46875 9.1476764e-41
-0.5 -0.1875 -0.5 9.1476764e-41
-0.5 -0.1875 -0.46875 9.1476764e-41
-0.5 -0.1875 -0.4375 9.1476764e-41
-0.5 -0.1875 -0.40625 9.1476764e-41
-0.5 -0.1875 -0.375 9.1476764e-41
-0.5 -0.1875 -0.34375 9.1476764e-41
-0.5 -0.1875 -0.3125 9.1476764e-41
-0.5 -0.1875 -0.28125 9.1476764e-41
-0.5 -0.1875 -0.25 9.1476764e-41
-0.5 -0.1875 -0.21875 9.1476764e-41
-0.5 -0.1875 -0.1875 9.1476764e-41
-0.5 -0.1875 -0.15625 9.1476764e-41
-0.5 -0.1875 -0.125 9.1476764e-41
-0.5 -0.1875 -0.09375 9.1476764e-41
-0.5 -0.1875 -0.0625 9.1476764e-41
-0.5 -0.1875 -0.03125 9.1476764e-41
-0.5 -0.1875 0 9.1476764e-41
-0.5 -0.1875 0.03125 9.1476764e-41
-0.5 -0.1875 0.0625 9.1476764e-41
-0.5 -0.1875 0.09375 9.1476764e-41
-0.5 -0.1875 0.125 9.1476764e-41
-0.5 -0.1875 0.15625 9.1476764e-41
-0.5 -0.1875 0.1875 9.1476764e-41
-0.5 -0.1875 0.21875 9.1476764e-41
-0.5 -0.1875 0.25 9.1476764e-41
-0.5 -0.1875 0.28125 9.1476764e-41
-0.5 -0.1875 0.3125 9.1476764e-41
-0.5 -0.1875 0.34375 9.1476764e-41
-0.5 -0.1875 0.375 9.1476764e-41
-0.5 -0.1875 0.40625 9.1476764e-41
-0.5 -0.1875 0.4375 9.1476764e-41
-0.5 -0.1875 0.46875 9.1476764e-41
-0.5 -0.15625 -0.5 9.1476764e-41
-0.5 -0.15625 -0.46875 9.1476764e-41
-0.5 -0.15625 -0.4375 9.1476764e-41
-0.5 -0.15625 -0.40625 9.1476764e-41
-0.5 -0.15625 -0.375 9.1476764e-41
-0.5 -0.15625 -0.34375 9.1476764e-41
-0.5 -0.15625 -0.3125 9.1476764e-41
-0.5 -0.15625 -0.28125 9.1476764e-41
-0.5 -0.15625 -0.25 9.1476764e-41
-0.5 -0.15625 -0.21875 9.1476764e-41
-0.5 -0.15625 -0.1875 9.1476764e-41
-0.5 -0.15625 -0.15625 9.1476764e-41
-0.5 -0.15625 -0.125 9.1476764e-41
-0.5 -0.15625 -0.09375 9.1476764e-41
-0.5 -0.15625 -0.0625 9.1476764e-41
-0.5 -0.15625 -0.03125 9.1476764e-41
-0.5 -0.15625 0 9.1476764e-41
-0.5 -0.15625 0.03125 9.1476764e-41
-0.5 -0.15625 0.0625 9.1476764e-41
-0.5 -0.15625 0.09375 9.1476764e-41
-0.5 -0.15625 0.125 9.1476764e-41
-0.5 -0.15625 0.15625 9.1476764e-41
-0.5 -0.15625 0.1875 9.1476764e-41
-0.5 -0.15625 0.21875 9.1476764e-41
-0.5 -0.15625 0.25 9.1476764e-41
-0.5 -0.15625 0.28125 9.1476764e-41
-0.5 -0.15625 0.3125 9.1476764e-41
-0.5 -0.15625 0.34375 9.1476764e-41
-0.5 -0.15625 0.375 9.1476764e-41
-0.5 -0.15625 0.40625 9.1476764e-41
-0.5 -0.15625 0.4375 9.1476764e-41
-0.5 -0.15625 0.46875 9.1476764e-41
-0.5 -0.125 -0.5 9.1476764e-41
-0.5 -0.125 -0.46875 9.1476764e-41
-0.5 -0.125 -0.4375 9.1476764e-41
-0.5 -0.125 -0.40625 9.1476764e-41
-0.5 -0.125 -0.375 9.1476764e-41
-0.5 -0.125 -0.34375 9.1476764e-41
-0.5 -0.125 -0.3125 9.1476764e-41
-0.5 -0.125 -0.28125 9.1476764e-41
-0.5 -0.125 -0.25 9.1476764e-41
-0.5 -0.125 -0.21875 9.1476764e-41
-0.5 -0.125 -0.1875 9.1476764e-41
-0.5 -0.125 -0.15625 9.1476764e-41
-0.5 -0.125 -0.125 9.1476764e-41
-0.5 -0.125 -0.09375 9.1476764e-41
-0.5 -0.125 -0.0625 9.1476764e-41
-0.5 -0.125 -0.03125 9.1476764e-41
-0.5 -0.125 0 9.1476764e-41
-0.5 -0.125 0.03125 9.1476764e-41
-0.5 -0.125 0.0625 9.1476764e-41
-0.5 -0.125 0.09375 9.1476764e-41
-0.5 -0.125 0.125 9.1476764e-41
-0.5 -0.125 0.15625 9.1476764e-41
-0.5 -0.125 0.1875 9.1476764e-41
-0.5 -0.125 0.21875 9.1476764e-41
-0.5 -0.125 0.25 9.1476764e-41
-0.5 -0.125 0.28125 9.1476764e-41
-0.5 -0.125 0.3125 9.1476764e-41
-0.5 -0.125 0.34375 9.1476764e-41
-0.5 -0.125 0.375 9.1476764e-41
-0.5 -0.125 0.40625 9.1476764e-41
-0.5 -0.125 0.4375 9.1476764e-41
-0.5 -0.125 0.46875 9.1476764e-41
-0.5 -0.09375 -0.5 9.1476764e-41
-0.5 -0.09375 -0.46875 9.1476764e-41
-0.5 -0.09375 -0.4375 9.1476764e-41
-0.5 -0.09375 -0.40625 9.1476764e-41
-0.5 -0.09375 -0.375 9.1476764e-41
-0.5 -0.09375 -0.34375 9.1476764e-41
-0.5 -0.09375 -0.3125 9.1476764e-41
-0.5 -0.09375 -0.28125 9.1476764e-41
-0.5 -0.09375 -0.25 9.1476764e-41
-0.5 -0.09375 -0.21875 9.1476764e-41
-0.5 -0.09375 -0.1875 9.1476764e-41
-0.5 -0.09375 -0.15625 9.1476764e-41
-0.5 -0.09375 -0.125 9.1476764e-41
-0.5 -0.09375 -0.09375 9.1476764e-41
-0.5 -0.09375 -0.0625 9.1476764e-41
-0.5 -0.09375 -0.03125 9.1476764e-41
-0.5 -0.09375 0 9.1476764e-41
-0.5 -0.09375 0.03125 9.1476764e-41
-0.5 -0.09375 0.0625 9.1476764e-41
-0.5 -0.09375 0.09375 9.1476764e-41
-0.5 -0.09375 0.125 9.1476764e-41
-0.5 -0.09375 0.15625 9.1476764e-41
-0.5 -0.09375 0.1875 9.1476764e-41
-0.5 -0.09375 0.21875 9.1476764e-41
-0.5 -0.09375 0.25 9.1476764e-41
-0.5 -0.09375 0.28125 9.1476764e-41
-0.5 -0.09375 0.3125 9.1476764e-41
-0.5 -0.09375 0.34375 9.1476764e-41
-0.5 -0.09375 0.375 9.1476764e-41
-0.5 -0.09375 0.40625 9.1476764e-41
-0.5 -0.09375 0.4375 9.1476764e-41
-0.5 -0.09375 0.46875 9.1476764e-41
-0.5 -0.0625 -0.5 9.1476764e-41
-0.5 -0.0625 -0.46875 9.1476764e-41
-0.5 -0.0625 -0.4375 9.1476764e-41
-0.5 -0.0625 -0.40625 9.1476764e-41
-0.5 -0.0625 -0.375 9.1476764e-41
-0.5 -0.0625 -0.34375 9.1476764e-41
-0.5 -0.0625 -0.3125 9.1476764e-41
-0.5 -0.0625 -0.28125 9.1476764e-41
-0.5 -0.0625 -0.25 9.1476764e-41
-0.5 -0.0625 -0.21875 9.1476764e-41
-0.5 -0.0625 -0.1875 9.1476764e-41
-0.5 -0.0625 -0.15625 9.1476764e-41
-0.5 -0.0625 -0.125 9.1476764e-41
-0.5 -0.0625 -0.09375 9.1476764e-41
-0.5 -0.0625 -0.0625 9.1476764e-41
-0.5 -0.0625 -0.03125 9.1476764e-41
-0.5 -0.0625 0 9.1476764e-41
-0.5 -0.0625 0.03125 9.1476764e-41
-0.5 -0.0625 0.0625 9.1476764e-41
-0.5 -0.0625 0.09375 9.1476764e-41
-0.5 -0.0625 0.125 9.1476764e-41
-0.5 -0.0625 0.15625 9.1476764e-41
-0.5 -0.0625 0.1875 9.1476764e-41
-0.5 -0.0625 0.21875 9.1476764e-41
-0.5 -0.0625 0.25 9.1476764e-41
-0.5 -0.0625 0.28125 9.1476764e-41
-0.5 -0.0625 0.3125 9.1476764e-41
-0.5 -0.0625 0.34375 9.1476764e-41
-0.5 -0.0625 0.375 9.1476764e-41
-0.5 -0.0625 0.40625 9.1476764e-41
-0.5 -0.0625 0.4375 9.1476764e-41
-0.5 -0.0625 0.46875 9.1476764e-41
-0.5 -0.03125 -0.5 9.1476764e-41
-0.5 -0.03125 -0.46875 9.1476764e-41
-0.5 -0.03125 -0.4375 9.1476764e-41
-0.5 -0.03125 -0.40625 9.1476764e-41
-0.5 -0.03125 -0.375 9.1476764e-41
-0.5 -0.03125 -0.34375 9.1476764e-41
-0.5 -0.03125 -0.3125 9.1476764e-41
-0.5 -0.03125 -0.28125 9.1476764e-41
-0.5 -0.03125 -0.25 9.1476764e-41
-0.5 -0.03125 -0.21875 9.1476764e-41
-0.5 -0.03125 -0.1875 9.1476764e-41
-0.5 -0.03125 -0.15625 9.1476764e-41
-0.5 -0.03125 -0.125 9.1476764e-41
-0.5 -0.03125 -0.09375 9.1476764e-41
-0.5 -0.03125 -0.0625 9.1476764e-41
-0.5 -0.03125 -0.03125 9.1476764e-41
-0.5 -0.03125 0 9.1476764e-41
-0.5 -0.03125 0.03125 9.1476764e-41
-0.5 -0.03125 0.0625 9.1476764e-41
-0.5 -0.03125 0.09375 9.1476764e-41
-0.5 -0.03125 0.125 9.1476764e-41
-0.5 -0.03125 0.15625 9.1476764e-41
-0.5 -0.03125 0.1875 9.1476764e-41
-0.5 -0.03125 0.21875 9.1476764e-41
-0.5 -0.03125 0.25 9.1476764e-41
-0.5 -0.03125 0.28125 9.1476764e-41
-0.5 -0.03125 0.3125 9.1476764e-41
-0.5 -0.03125 0.34375 9.1476764e-41
-0.5 -0.03125 0.375 9.1476764e-41
-0.5 -0.03125 0.40625 9.1476764e-41
-0.5 -0.03125 0.4375 9.1476764e-41
-0.5 -0.03125 0.46875 9.1476764e-41
-0.5 0 -0.5 9.1476764e-41
-0.5 0 -0.46875 9.1476764e-41
-0.5 0 -0.4375 9.1476764e-41
-0.5 0 -0.40625 9.1476764e-41
-0.5 0 -0.375 9.1476764e-41
-0.5 0 -0.34375 9.1476764e-41
-0.5 0 -0.3125 9.1476764e-41
-0.5 0 -0.28125 9.1476764e-41
-0.5 0 -0.25 9.1476764e-41
-0.5 0 -0.21875 9.1476764e-41
-0.5 0 -0.1875 9.1476764e-41
-0.5 0 -0.15625 9.1476764e-41
-0.5 0 -0.125 9.1476764e-41
-0.5 0 -0.09375 9.1476764e-41
-0.5 0 -0.0625 9.1476764e-41
-0.5 0 -0.03125 9.1476764e-41
-0.5 0 0 9.1476764e-41
-0.5 0 0.03125 9.1476764e-41
-0.5 0 0.0625 9.1476764e-41
-0.5 0 0.09375 9.1476764e-41
-0.5 0 0.125 9.1476764e-41
-0.5 0 0.15625 9.1476764e-41
-0.5 0 0.1875 9.1476764e-41
-0.5 0 0.21875 9.1476764e-41
-0.5 0 0.25 9.1476764e-41
-0.5 0 0.28125 9.1476764e-41
-0.5 0 0.3125 9.1476764e-41
-0.5 0 0.34375 9.1476764e-41
-0.5 0 0.375 9.1476764e-41
-0.5 0 0.40625 9.1476764e-41
-0.5 0 0.4375 9.1476764e-41
-0.5 0 0.46875 9.1476764e-41
-0.5 0.03125 -0.5 9.1476764e-41
-0.5 0.03125 -0.46875 9.1476764e-41
-0.5 0.03125 -0.4375 9.1476764e-41
-0.5 0.03125 -0.40625 9.1476764e-41
-0.5 0.03125 -0.375 9.1476764e-41
-0.5 0.03125 -0.34375 9.1476764e-41
-0.5 0.03125 -0.3125 9.1476764e-41
-0.5 0.03125 -0.28125 9.1476764e-41
-0.5 0.03125 -0.25 9.1476764e-41
-0.5 0.03125 -0.21875 9.1476764e-41
-0.5 0.03125 -0.1875 9.1476764e-41
-0.5 0.03125 -0.15625 9.1476764e-41
-0.5 0.03125 -0.125 9.1476764e-41
-0.5 0.03125 -0.09375 9.1476764e-41
-0.5 0.03125 -0.0625 9.1476764e-41
-0.5 0.03125 -0.03125 9.1476764e-41
-0.5 0.03125 0 9.1476764e-41
-0.5 0.03125 0.03125 9.1476764e-41
-0.5 0.03125 0.0625 9.1476764e-41
-0.5 0.03125 0.09375 9.1476764e-41
-0.5 0.03125 0.125 9.1476764e-41
-0.5 0.03125 0.15625 9.1476764e-41
-0.5 0.03125 0.1875 9.1476764e-41
-0.5 0.03125 0.21875 9.1476764e-41
-0.5 0.03125 0.25 9.1476764e-41
-0.5 0.03125 0.28125 9.1476764e-41
-0.5 0.03125 0.3125 9.1476764e-41
-0.5 0.03125 0.34375 9.1476764e-41
-0.5 0.03125 0.375 9.1476764e-41
-0.5 0.03125 0.40625 9.1476764e-41
-0.5 0.03125 0.4375 9.1476764e-41
-0.5 0.03125 0.46875 9.1476764e-41
-0.5 0.0625 -0.5 9.1476764e-41
-0.5 0.0625 -0.46875 9.1476764e-41
-0.5 0.0625 -0.4375 9.1476764e-41
-0.5 0.0625 -0.40625 9.1476764e-41
-0.5 0.0625 -0.375 9.1476764e-41
-0.5 0.0625 -0.34375 9.1476764e-41
-0.5 0.0625 -0.3125 9.1476764e-41
-0.5 0.0625 -0.28125 9.1476764e-41
-0.5 0.0625 -0.25 9.1476764e-41
-0.5 0.0625 -0.21875 9.1476764e-41
-0.5 0.0625 -0.1875 9.1476764e-41
-0.5 0.0625 -0.15625 9.1476764e-41
-0.5 0.0625 -0.125 9.1476764e-41
-0.5 0.0625 -0.09375 9.1476764e-41
-0.5 0.0625 -0.0625 9.1476764e-41
-0.5 0.0625 -0.03125 9.1476764e-41
-0.5 0.0625 0 9.1476764e-41
-0.5 0.0625 0.03125 9.1476764e-41
-0.5 0.0625 0.0625 9.1476764e-41
-0.5 0.0625 0.09375 9.1476764e-41
-0.5 0.0625 0.125 9.1476764e-41
-0.5 0.0625 0.15625 9.1476764e-41
-0.5 0.0625 0.1875 9.1476764e-41
-0.5 0.0625 0.21875 9.1476764e-41
-0.5 0.0625 0.25 9.1476764e-41
-0.5 0.0625 0.28125 9.1476764e-41
-0.5 0.0625 0.3125 9.1476764e-41
-0.5 0.0625 0.34375 9.1476764e-41
-0.5 0.0625 0.375 9.1476764e-41
-0.5 0.0625 0.40625 9.1476764e-41
-0.5 0.0625 0.4375 9.1476764e-41
-0.5 0.0625 0.46875 9.1476764e-41
-0.5 0.09375 -0.5 9.1476764e-41
-0.5 0.09375 -0.46875 9.1476764e-41
-0.5 0.09375 -0.4375 9.1476764e-41
-0.5 0.09375 -0.40625 9.1476764e-41
-0.5 0.09375 -0.375 9.1476764e-41
-0.5 0.09375 -0.34375 9.1476764e-41
-0.5 0.09375 -0.3125 9.1476764e-41
-0.5 0.09375 -0.28125 9.1476764e-41
-0.5 0.09375 -0.25 9.1476764e-41
-0.5 0.09375 -0.21875 9.1476764e-41
-0.5 0.09375 -0.1875 9.1476764e-41
-0.5 0.09375 -0.15625 9.1476764e-41
-0.5 0.09375 -0.125 9.1476764e-41
-0.5 0.09375 -0.09375 9.1476764e-41
-0.5 0.09375 -0.0625 9.1476764e-41
-0.5 0.09375 -0.03125 9.1476764e-41
-0.5 0.09375 0 9.1476764e-41
-0.5 0.09375 0.03125 9.1476764e-41
-0.5 0.09375 0.0625 9.1476764e-41
-0.5 0.09375 0.09375 9.1476764e-41
-0.5 0.09375 0.125 9.1476764e-41
-0.5 0.09375 0.15625 9.1476764e-41
-0.5 0.09375 0.1875 9.1476764e-41
-0.5 0.09375 0.21875 9.1476764e-41
-0.5 0.09375 0.25 9.1476764e-41
-0.5 0.09375 0.28125 9.1476764e-41
-0.5 0.09375 0.3125 9.1476764e-41
-0.5 0.09375 0.34375 9.1476764e-41
-0.5 0.09375 0.375 9.1476764e-41
-0.5 0.09375 0.40625 9.1476764e-41
-0.5 0.09375 0.4375 9.1476764e-41
-0.5 0.09375 0.46875 9.1476764e-41
-0.5 0.125 -0.5 9.1476764e-41
-0.5 0.125 -0.46875 9.1476764e-41
-0.5 0.125 -0.4375 9.1476764e-41
-0.5 0.125 -0.40625 9.1476764e-41
-0.5 0.125 -0.375 9.1476764e-41
-0.5 0.125 -0.34375 9.1476764e-41
-0.5 0.125 -0.3125 9.1476764e-41
-0.5 0.125 -0.28125 9.1476764e-41
-0.5 0.125 -0.25 9.1476764e-41
-0.5 0.125 -0.21875 9.1476764e-41
-0.5 0.125 -0.1875 9.1476764e-41
-0.5 0.125 -0.15625 9.1476764e-41
-0.5 0.125 -0.125 9.1476764e-41
-0.5 0.125 -0.09375 9.1476764e-41
-0.5 0.125 -0.0625 9.1476764e-41
-0.5 0.125 -0.03125 9.1476764e-41
-0.5 0.125 0 9.1476764e-41
-0.5 0.125 0.03125 9.1476764e-41
-0.5 0.125 0.0625 9.1476764e-41
-0.5 0.125 0.09375 9.1476764e-41
-0.5 0.125 0.125 9.1476764e-41
-0.5 0.125 0.15625 9.1476764e-41
-0.5 0.125 0.1875 9.1476764e-41
-0.5 0.125 0.21875 9.1476764e-41
-0.5 0.125 0.25 9.1476764e-41
-0.5 0.125 0.28125 9.1476764e-41
-0.5 0.125 0.3125 9.1476764e-41
-0.5 0.125 0.34375 9.1476764e-41
-0.5 0.125 0.375 9.1476764e-41
-0.5 0.125 0.40625 9.1476764e-41
-0.5 0.125 0.4375 9.1476764e-41
-0.5 0.125 0.46875 9.1476764e-41
-0.5 0.15625 -0.5 9.1476764e-41
-0.5 0.15625 -0.46875 9.1476764e-41
-0.5 0.15625 -0.4375 9.1476764e-41
-0.5 0.15625 -0.40625 9.1476764e-41
-0.5 0.15625 -0.375 9.1476764e-41
-0.5 0.15625 -0.34375 9.1476764e-41
-0.5 0.15625 -0.3125 9.1476764e-41
-0.5 0.15625 -0.28125 9.1476764e-41
-0.5 0.15625 -0.25 9.1476764e-41
-0.5 0.15625 -0.21875 9.1476764e-41
-0.5 0.15625 -0.1875 9.1476764e-41
-0.5 0.15625 -0.15625 9.1476764e-41
-0.5 0.15625 -0.125 9.1476764e-41
-0.5 0.15625 -0.09375 9.1476764e-41
-0.5 0.15625 -0.0625 9.1476764e-41
-0.5 0.15625 -0.03125 9.1476764e-41
-0.5 0.15625 0 9.1476764e-41
-0.5 0.15625 0.03125 9.1476764e-41
-0.5 0.15625 0.0625 9.1476764e-41
-0.5 0.15625 0.09375 9.1476764e-41
-0.5 0.15625 0.125 9.1476764e-41
-0.5 0.15625 0.15625 9.1476764e-41
-0.5 0.15625 0.1875 9.1476764e-41
-0.5 0.15625 0.21875 9.1476764e-41
-0.5 0.15625 0.25 9.1476764e-41
-0.5 0.15625 0.28125 9.1476764e-41
-0.5 0.15625 0.3125 9.1476764e-41
-0.5 0.15625 0.34375 9.1476764e-41
-0.5 0.15625 0.375 9.1476764e-41
-0.5 0.15625 0.40625 9.1476764e-41
-0.5 0.15625 0.4375 9.1476764e-41
-0.5 0.15625 0.46875 9.1476764e-41
-0.5 0.1875 -0.5 9.1476764e-41
-0.5 0.1875 -0.46875 9.1476764e-41
-0.5 0.1875 -0.4375 9.1476764e-41
-0.5 0.1875 -0.40625 9.1476764e-41
-0.5 0.1875 -0.375 9.1476764e-41
-0.5 0.1875 -0.34375 9.1476764e-41
-0.5 0.1875 -0.3125 9.1476764e-41
-0.5 0.1875 -0.28125 9.1476764e-41
-0.5 0.1875 -0.25 9.1476764e-41
-0.5 0.1875 -0.21875 9.1476764e-41
-0.5 0.1875 -0.1875 9.1476764e-41
-0.5 0.1875 -0.15625 9.1476764e-41
-0.5 0.1875 -0.125 9.1476764e-41
-0.5 0.1875 -0.09375 9.1476764e-41
-0.5 0.1875 -0.0625 9.1476764e-41
-0.5 0.1875 -0.03125 9.1476764e-41
-0.5 0.1875 0 9.1476764e-41
-0.5 0.1875 0.03125 9.1476764e-41
-0.5 0.1875 0.0625 9.1476764e-41
-0.5 0.1875 0.09375 9.1476764e-41
-0.5 0.1875 0.125 9.1476764e-41
-0.5 0.1875 0.15625 9.1476764e-41
-0.5 0.1875 0.1875 9.1476764e-41
-0.5 0.1875 0.21875 9.1476764e-41
-0.5 0.1875 0.25 9.1476764e-41
-0.5 0.1875 0.28125 9.1476764e-41
-0.5 0.1875 0.3125 9.1476764e-41
-0.5 0.1875 0.34375 9.1476764e-41
-0.5 0.1875 0.375 9.1476764e-41
-0.5 0.1875 0.40625 9.1476764e-41
-0.5 0.1875 0.4375 9.1476764e-41
-0.5 0.1875 0.46875 9.1476764e-41
-0.5 0.21875 -0.5 9.1476764e-41
-0.5 0.21875 -0.46875 9.1476764e-41
-0.5 0.21875 -0.4375 9.1476764e-41
-0.5 0.21875 -0.40625 9.1476764e-41
-0.5 0.21875 -0.375 9.1476764e-41
-0.5 0.21875 -0.34375 9.1476764e-41
-0.5 0.21875 -0.3125 9.1476764e-41
-0.5 0.21875 -0.28125 9.1476764e-41
-0.5 0.21875 -0.25 9.1476764e-41
-0.5 0.21875 -0.21875 9.1476764e-41
-0.5 0.21875 -0.1875 9.1476764e-41
-0.5 0.21875 -0.15625 9.1476764e-41
-0.5 0.21875 -0.125 9.1476764e-41
-0.5 0.21875 -0.09375 9.1476764e-41
-0.5 0.21875 -0.0625 9.1476764e-41
-0.5 0.21875 -0.03125 9.1476764e-41
-0.5 0.21875 0 9.1476764e-41
-0.5 0.21875 0.03125 9.1476764e-41
-0.5 0.21875 0.0625 9.1476764e-41
-0.5 0.21875 0.09375 9.1476764e-41
-0.5 0.21875 0.125 9.1476764e-41
-0.5 0.21875 0.15625 9.1476764e-41
-0.5 0.21875 0.1875 9.1476764e-41
-0.5 0.21875 0.21875 9.1476764e-41
-0.5 0.21875 0.25 9.1476764e-41
-0.5 0.21875 0.28125 9.1476764e-41
-0.5 0.21875 0.3125 9.1476764e-41
-0.5 0.21875 0.34375 9.1476764e-41
-0.5 0.21875 0.375 9.1476764e-41
-0.5 0.21875 0.40625 9.1476764e-41
-0.5 0.21875 0.4375 9.1476764e-41
-0.5 0.21875 0.46875 9.1476764e-41
-0.5 0.25 -0.5 9.1476764e-41
-0.5 0.25 -0.46875 9.1476764e-41
-0.5 0.25 -0.4375 9.1476764e-41
-0.5 0.25 -0.40625 9.1476764e-41
-0.5 0.25 -0.375 9.1476764e-41
-0.5 0.25 -0.34375 9.1476764e-41
-0.5 0.25 -0.3125 9.1476764e-41
-0.5 0.25 -0.28125 9.1476764e-41
-0.5 0.25 -0.25 9.1476764e-41
-0.5 0.25 -0.21875 9.1476764e-41
-0.5 0.25 -0.1875 9.1476764e-41
-0.5 0.25 -0.15625 9.1476764e-41
-0.5 0.25 -0.125 9.1476764e-41
-0.5 0.25 -0.09375 9.1476764e-41
-0.5 0.25 -0.0625 9.1476764e-41
-0.5 0.25 -0.03125 9.1476764e-41
-0.5 0.25 0 9.1476764e-41
-0.5 0.25 0.03125 9.1476764e-41
-0.5 0.25 0.0625 9.1476764e-41
-0.5 0.25 0.09375 9.1476764e-41
-0.5 0.25 0.125 9.1476764e-41
-0.5 0.25 0.15625 9.1476764e-41
-0.5 0.25 0.1875 9.1476764e-41
-0.5 0.25 0.21875 9.1476764e-41
-0.5 0.25 0.25 9.1476764e-41
-0.5 0.25 0.28125 9.1476764e-41
-0.5 0.25 0.3125 9.1476764e-41
-0.5 0.25 0.34375 9.1476764e-41
-0.5 0.25 0.375 9.1476764e-41
-0.5 0.25 0.40625 9.1476764e-41
-0.5 0.25 0.4375 9.1476764e-41
-0.5 0.25 0.46875 9.1476764e-41
-0.5 0.28125 -0.5 9.1476764e-41
-0.5 0.28125 -0.46875 9.1476764e-41
-0.5 0.28125 -0.4375 9.1476764e-41
-0.5 0.28125 -0.40625 9.1476764e-41
-0.5 0.28125 -0.375 9.1476764e-41
-0.5 0.28125 -0.34375 9.1476764e-41
-0.5 0.28125 -0.3125 9.1476764e-41
-0.5 0.28125 -0.28125 9.1476764e-41
-0.5 0.28125 -0.25 9.1476764e-41
-0.5 0.28125 -0.21875 9.1476764e-41
-0.5 0.28125 -0.1875 9.1476764e-41
-0.5 0.28125 -0.15625 9.1476764e-41
-0.5 0.28125 -0.125 9.1476764e-41
-0.5 0.28125 -0.09375 9.1476764e-41
-0.5 0.28125 -0.0625 9.1476764e-41
-0.5 0.28125 -0.03125 9.1476764e-41
-0.5 0.28125 0 9.1476764e-41
-0.5 0.28125 0.03125 9.1476764e-41
-0.5 0.28125 0.0625 9.1476764e-41
-0.5 0.28125 0.09375 9.1476764e-41
-0.5 0.28125 0.125 9.1476764e-41
-0.5 0.28125 0.15625 9.1476764e-41
-0.5 0.28125 0.1875 9.1476764e-41
-0.5 0.28125 0.21875 9.1476764e-41
-0.5 0.28125 0.25 9.1476764e-41
-0.5 0.28125 0.28125 9.1476764e-41
-0.5 0.28125 0.3125 9.1476764e-41
-0.5 0.28125 0.34375 9.1476764e-41
-0.5 0.28125 0.375 9.1476764e-41
-0.5 0.28125 0.40625 9.1476764e-41
-0.5 0.28125 0.4375 9.1476764e-41
-0.5 0.28125 0.46875 9.1476764e-41
-0.5 0.3125 -0.5 9.1476764e-41
-0.5 0.3125 -0.46875 9.1476764e-41
-0.5 0.3125 -0.4375 9.1476764e-41
-0.5 0.3125 -0.40625 9.1476764e-41
-0.5 0.3125 -0.375 9.1476764e-41
-0.5 0.3125 -0.34375 9.1476764e-41
-0.5 0.3125 -0.3125 9.1476764e-41
-0.5 0.3125 -0.28125 9.1476764e-41
-0.5 0.3125 -0.25 9.1476764e-41
-0.5 0.3125 -0.21875 9.1476764e-41
-0.5 0.3125 -0.1875 9.1476764e-41
-0.5 0.3125 -0.15625 9.1476764e-41
-0.5 0.3125 -0.125 9.1476764e-41
-0.5 0.3125 -0.09375 9.1476764e-41
-0.5 0.3125 -0.0625 9.1476764e-41
-0.5 0.3125 -0.03125 9.1476764e-41
-0.5 0.3125 0 9.1476764e-41
-0.5 0.3125 0.03125 9.1476764e-41
-0.5 0.3125 0.0625 9.1476764e-41
-0.5 0.3125 0.09375 9.1476764e-41
-0.5 0.3125 0.125 9.1476764e-41
-0.5 0.3125 0.15625 9.1476764e-41
-0.5 0.3125 0.1875 9.1476764e-41
-0.5 0.3125 0.21875 9.1476764e-41
-0.5 0.3125 0.25 9.1476764e-41
-0.5 0.3125 0.28125 9.1476764e-41
-0.5 0.3125 0.3125 9.1476764e-41
-0.5 0.3125 0.34375 9.1476764e-41
-0.5 0.3125 0.375 9.1476764e-41
-0.5 0.3125 0.40625 9.1476764e-41
-0.5 0.3125 0.4375 9.1476764e-41
-0.5 0.3125 0.46875 9.1476764e-41
-0.5 0.34375 -0.5 9.1476764e-41
-0.5 0.34375 -0.46875 9.1476764e-41
-0.5 0.34375 -0.4375 9.1476764e-41
-0.5 0.34375 -0.40625 9.1476764e-41
-0.5 0.34375 -0.375 9.1476764e-41
-0.5 0.34375 -0.34375 9.1476764e-41
-0.5 0.34375 -0.3125 9.1476764e-41
-0.5 0.34375 -0.28125 9.1476764e-41
-0.5 0.34375 -0.25 9.1476764e-41
-0.5 0.34375 -0.21875 9.1476764e-41
-0.5 0.34375 -0.1875 9.1476764e-41
-0.5 0.34375 -0.15625 9.1476764e-41
-0.5 0.34375 -0.125 9.1476764e-41
-0.5 0.34375 -0.09375 9.1476764e-41
-0.5 0.34375 -0.0625 9.1476764e-41
-0.5 0.34375 -0.03125 9.1476764e-41
-0.5 0.34375 0 9.1476764e-41
-0.5 0.34375 0.03125 9.1476764e-41
-0.5 0.34375 0.0625 9.1476764e-41
-0.5 0.34375 0.09375 9.1476764e-41
-0.5 0.34375 0.125 9.1476764e-41
-0.5 0.34375 0.15625 9.1476764e-41
-0.5 0.34375 0.1875 9.1476764e-41
-0.5 0.34375 0.21875 9.1476764e-41
-0.5 0.34375 0.25 9.1476764e-41
-0.5 0.34375 0.28125 9.1476764e-41
-0.5 0.34375 0.3125 9.1476764e-41
-0.5 0.34375 0.34375 9.1476764e-41
-0.5 0.34375 0.375 9.1476764e-41
-0.5 0.34375 0.40625 9.1476764e-41
-0.5 0.34375 0.4375 9.1476764e-41
-0.5 0.34375 0.46875 9.1476764e-41
